-0.212683 -0.523676 -0.096586 0.000000 0.500000 0.500000
0.197375 -0.686503 0.122280 0.000000 0.500000 0.500000
-0.217919 -0.748975 0.051479 0.000000 0.500000 0.500000
0.132761 -0.422770 -0.206137 0.000000 0.500000 0.500000
-0.106211 -0.386292 -0.290205 0.000000 0.500000 0.500000
-0.064870 0.723146 0.104213 0.300000 0.600000 0.000000
0.024416 0.191667 0.201893 0.000000 0.500000 0.500000
-0.178040 -0.177893 -0.043570 0.000000 0.500000 0.500000
0.109385 -0.822448 0.247804 0.000000 0.500000 0.500000
0.000810 0.738070 -0.148155 0.600000 0.000000 0.300000
-0.100482 -0.161311 -0.301503 0.000000 0.500000 0.500000
-0.161663 -0.806466 -0.187803 0.000000 0.500000 0.500000
0.102929 0.716187 0.027561 0.600000 0.000000 0.300000
-0.126919 0.137314 -0.249080 0.000000 0.500000 0.500000
0.044299 0.604143 0.187526 0.000000 0.500000 0.500000
-0.126725 -0.642132 -0.335319 0.000000 0.500000 0.500000
-0.054925 0.734840 0.137329 0.600000 0.000000 0.300000
0.045554 0.495460 -0.377605 0.000000 0.500000 0.500000
-0.095462 -0.244891 -0.309332 0.000000 0.500000 0.500000
-0.063473 0.716187 -0.010331 0.600000 0.000000 0.300000
0.207628 -0.630934 -0.040918 0.000000 0.500000 0.500000
-0.137282 -0.601803 -0.318205 0.000000 0.500000 0.500000
-0.087851 0.992035 0.060205 0.600000 0.000000 0.300000
0.184652 -0.497105 -0.145526 0.000000 0.500000 0.500000
0.127375 -0.599095 -0.316136 0.000000 0.500000 0.500000
0.139786 -0.156230 0.185517 0.000000 0.500000 0.500000
-0.048964 -0.857287 -0.169217 0.000000 0.500000 0.500000
0.166311 0.053369 0.056490 0.000000 0.500000 0.500000
0.006350 0.595111 -0.119379 0.300000 0.600000 0.000000
0.100750 0.992035 -0.004283 0.600000 0.000000 0.300000
0.122521 0.596537 -0.016208 0.000000 0.500000 0.500000
-0.136868 -0.823441 -0.205848 0.000000 0.500000 0.500000
0.070157 0.056257 0.329608 0.000000 0.500000 0.500000
0.205665 -0.575371 -0.071509 0.000000 0.500000 0.500000
0.070566 0.184857 -0.331085 0.000000 0.500000 0.500000
0.100338 0.853034 0.102403 0.600000 0.000000 0.300000
-0.142819 -0.001035 -0.208483 0.000000 0.500000 0.500000
0.027169 -0.715712 -0.377605 0.000000 0.500000 0.500000
0.090143 0.496423 -0.375295 0.000000 0.500000 0.500000
-0.133552 0.973302 0.072645 0.600000 0.000000 0.300000
-0.129916 0.810398 -0.079784 0.600000 0.000000 0.300000
0.079162 -0.002918 0.315563 0.000000 0.500000 0.500000
-0.040196 0.595111 -0.122460 0.000000 0.500000 0.500000
-0.014899 0.191667 0.135852 0.000000 0.500000 0.500000
0.078305 0.859147 -0.121784 0.600000 0.000000 0.300000
-0.101996 -0.510248 -0.373886 0.000000 0.500000 0.500000
0.015950 0.595601 0.290097 0.000000 0.500000 0.500000
0.182542 0.291876 0.182190 0.000000 0.500000 0.500000
0.158297 -0.292738 -0.113171 0.000000 0.500000 0.500000
-0.167625 0.176068 0.121394 0.000000 0.500000 0.500000
-0.177501 0.094869 -0.053967 0.000000 0.500000 0.500000
0.035883 -0.471876 -0.350786 0.000000 0.500000 0.500000
0.183065 -0.562828 0.180216 0.000000 0.500000 0.500000
0.149263 0.235476 0.253128 0.000000 0.500000 0.500000
-0.012804 0.608866 0.162611 0.000000 0.500000 0.500000
-0.170656 0.191667 -0.082757 0.000000 0.500000 0.500000
-0.157101 -0.364672 -0.164129 0.000000 0.500000 0.500000
0.003170 -0.626090 0.375490 0.000000 0.500000 0.500000
0.199997 0.398829 -0.107670 0.000000 0.500000 0.500000
-0.146117 -0.067101 -0.199796 0.000000 0.500000 0.500000
-0.093191 -0.135584 0.310759 0.000000 0.500000 0.500000
-0.085806 0.595111 0.122061 0.000000 0.500000 0.500000
-0.029235 0.909475 0.144103 0.600000 0.000000 0.300000
0.008946 0.248190 -0.377605 0.000000 0.500000 0.500000
0.168429 -0.336407 0.015677 0.000000 0.500000 0.500000
-0.005773 0.595111 0.063082 0.000000 0.500000 0.500000
0.171732 -0.509095 -0.217156 0.000000 0.500000 0.500000
-0.123278 -0.058777 0.254198 0.000000 0.500000 0.500000
-0.130747 0.282059 -0.329047 0.000000 0.500000 0.500000
0.145643 0.205560 -0.201563 0.000000 0.500000 0.500000
0.113645 -0.857287 -0.042946 0.000000 0.500000 0.500000
-0.105463 -0.753078 0.366364 0.000000 0.500000 0.500000
0.118089 -0.857287 -0.095183 0.000000 0.500000 0.500000
-0.052738 -0.857287 0.065837 0.000000 0.500000 0.500000
-0.118797 -0.098322 0.263095 0.000000 0.500000 0.500000
-0.174579 0.081249 -0.079154 0.000000 0.500000 0.500000
-0.016059 -0.857287 -0.257336 0.000000 0.500000 0.500000
0.117099 -0.151337 0.244723 0.000000 0.500000 0.500000
-0.131497 0.191667 0.089686 0.000000 0.500000 0.500000
0.140516 -0.414544 -0.185389 0.000000 0.500000 0.500000
0.122368 -0.355769 -0.233514 0.000000 0.500000 0.500000
0.054725 -0.739757 -0.377605 0.000000 0.500000 0.500000
0.079031 -0.731250 -0.377605 0.000000 0.500000 0.500000
-0.062844 -0.575193 0.375490 0.000000 0.500000 0.500000
-0.020428 0.111491 -0.337261 0.000000 0.500000 0.500000
-0.173970 -0.153414 0.080918 0.000000 0.500000 0.500000
0.073882 -0.499009 0.369020 0.000000 0.500000 0.500000
-0.021821 0.736198 0.084247 0.300000 0.600000 0.000000
0.054038 0.984574 -0.135516 0.600000 0.000000 0.300000
-0.167160 -0.434224 0.124071 0.000000 0.500000 0.500000
0.107270 0.612237 0.040115 0.300000 0.600000 0.000000
0.209508 0.378340 -0.004688 0.000000 0.500000 0.500000
-0.107373 -0.857287 0.128964 0.000000 0.500000 0.500000
-0.107253 -0.135065 -0.288134 0.000000 0.500000 0.500000
-0.184433 0.234301 0.183699 0.000000 0.500000 0.500000
0.109375 -0.162951 0.260062 0.000000 0.500000 0.500000
0.167546 -0.196292 -0.034799 0.000000 0.500000 0.500000
-0.197451 -0.740854 -0.169366 0.000000 0.500000 0.500000
-0.029591 0.716187 0.110458 0.600000 0.000000 0.300000
0.150384 0.553298 0.151784 0.000000 0.500000 0.500000
-0.196352 0.218565 0.068403 0.000000 0.500000 0.500000
-0.214218 -0.611692 0.084684 0.000000 0.500000 0.500000
0.007828 -0.378537 -0.337261 0.000000 0.500000 0.500000
-0.220009 -0.773696 -0.013300 0.000000 0.500000 0.500000
0.159590 -0.452299 0.102808 0.000000 0.500000 0.500000
-0.018301 0.366586 0.375490 0.000000 0.500000 0.500000
-0.141482 0.796948 -0.056602 0.600000 0.000000 0.300000
-0.169932 -0.239248 -0.108793 0.000000 0.500000 0.500000
-0.110880 0.822285 0.102325 0.600000 0.000000 0.300000
-0.016426 0.992035 -0.117558 0.600000 0.000000 0.300000
0.148294 -0.007043 0.153936 0.000000 0.500000 0.500000
-0.097206 0.605933 0.003188 0.000000 0.500000 0.500000
0.132587 0.191667 -0.085683 0.000000 0.500000 0.500000
-0.171085 -0.066074 -0.101439 0.000000 0.500000 0.500000
0.112558 0.628392 -0.023042 0.300000 0.600000 0.000000
-0.016699 0.615165 -0.035419 0.000000 0.500000 0.500000
-0.151182 0.097228 0.184342 0.000000 0.500000 0.500000
-0.108841 -0.101327 -0.284982 0.000000 0.500000 0.500000
-0.031334 0.191667 0.053636 0.000000 0.500000 0.500000
0.043278 0.736198 0.096322 0.300000 0.600000 0.000000
0.159145 -0.177251 -0.107761 0.000000 0.500000 0.500000
-0.160312 -0.440806 0.149905 0.000000 0.500000 0.500000
-0.039318 0.615165 -0.070562 0.000000 0.500000 0.500000
-0.123800 -0.354129 0.253160 0.000000 0.500000 0.500000
-0.117055 0.191667 0.100589 0.000000 0.500000 0.500000
0.191295 0.430691 0.149175 0.000000 0.500000 0.500000
0.048410 0.613205 -0.062117 0.000000 0.500000 0.500000
0.131086 0.574528 0.141727 0.000000 0.500000 0.500000
-0.023097 -0.243773 0.335146 0.000000 0.500000 0.500000
0.046932 0.624043 0.106990 0.300000 0.600000 0.000000
-0.037250 0.716187 -0.130132 0.600000 0.000000 0.300000
0.117354 -0.346938 -0.246333 0.000000 0.500000 0.500000
0.151118 -0.475751 -0.204080 0.000000 0.500000 0.500000
0.067274 0.595111 -0.073336 0.300000 0.600000 0.000000
0.019353 0.511979 0.375490 0.000000 0.500000 0.500000
-0.100468 0.668629 -0.074431 0.300000 0.600000 0.000000
-0.086048 0.379571 0.375490 0.000000 0.500000 0.500000
0.080854 0.462833 -0.377605 0.000000 0.500000 0.500000
-0.032566 0.337850 0.375490 0.000000 0.500000 0.500000
-0.043628 -0.337806 0.335146 0.000000 0.500000 0.500000
0.105004 0.576595 -0.217750 0.000000 0.500000 0.500000
-0.169300 0.563392 -0.045550 0.000000 0.500000 0.500000
0.119641 0.596355 0.064386 0.000000 0.500000 0.500000
-0.093590 0.992035 0.041192 0.600000 0.000000 0.300000
0.143702 -0.740215 0.281598 0.000000 0.500000 0.500000
-0.055108 0.378427 0.375490 0.000000 0.500000 0.500000
0.168137 -0.045604 -0.023408 0.000000 0.500000 0.500000
0.056579 0.404943 -0.377605 0.000000 0.500000 0.500000
-0.050255 0.985149 -0.091393 0.600000 0.000000 0.300000
-0.068867 0.451591 -0.377605 0.000000 0.500000 0.500000
0.178644 -0.571967 -0.198950 0.000000 0.500000 0.500000
0.125503 -0.691439 0.317738 0.000000 0.500000 0.500000
0.197340 -0.603580 0.122505 0.000000 0.500000 0.500000
0.048358 -0.857287 -0.122736 0.000000 0.500000 0.500000
-0.102437 -0.826375 0.274613 0.000000 0.500000 0.500000
0.022690 0.191667 0.293630 0.000000 0.500000 0.500000
-0.111491 0.595111 0.122034 0.000000 0.500000 0.500000
-0.174635 -0.821429 0.020496 0.000000 0.500000 0.500000
0.016492 0.736198 -0.029566 0.300000 0.600000 0.000000
0.177700 0.545944 0.007270 0.000000 0.500000 0.500000
-0.029188 0.736198 -0.046186 0.300000 0.600000 0.000000
0.003554 0.615165 0.065981 0.000000 0.500000 0.500000
-0.057812 -0.416329 0.335146 0.000000 0.500000 0.500000
0.132099 0.749256 -0.053103 0.600000 0.000000 0.300000
0.187412 -0.639572 0.163819 0.000000 0.500000 0.500000
-0.219199 -0.698529 0.026791 0.000000 0.500000 0.500000
0.208218 0.338259 0.027435 0.000000 0.500000 0.500000
0.046421 0.716187 0.043278 0.600000 0.000000 0.300000
-0.118431 0.216675 -0.307640 0.000000 0.500000 0.500000
-0.129956 -0.366725 -0.242366 0.000000 0.500000 0.500000
-0.003313 -0.691207 0.375490 0.000000 0.500000 0.500000
0.122031 0.306182 0.323449 0.000000 0.500000 0.500000
0.081343 0.191667 -0.155256 0.000000 0.500000 0.500000
-0.097568 0.056179 -0.306048 0.000000 0.500000 0.500000
-0.168675 -0.132484 -0.116813 0.000000 0.500000 0.500000
0.143648 0.407597 0.281704 0.000000 0.500000 0.500000
0.142839 0.470538 -0.285427 0.000000 0.500000 0.500000
0.081460 0.541491 -0.338688 0.000000 0.500000 0.500000
0.140379 0.191667 -0.116598 0.000000 0.500000 0.500000
-0.095931 -0.846937 0.241813 0.000000 0.500000 0.500000
0.106310 -0.195034 -0.268265 0.000000 0.500000 0.500000
-0.157148 0.069286 -0.163954 0.000000 0.500000 0.500000
0.133914 0.294443 -0.303150 0.000000 0.500000 0.500000
-0.123125 0.207458 0.280833 0.000000 0.500000 0.500000
-0.190476 -0.468335 0.011538 0.000000 0.500000 0.500000
-0.044390 -0.516229 0.375490 0.000000 0.500000 0.500000
0.067682 0.985149 -0.117269 0.600000 0.000000 0.300000
-0.090474 0.985149 0.100406 0.600000 0.000000 0.300000
0.010531 0.595111 0.041354 0.300000 0.600000 0.000000
0.097015 0.729323 0.105062 0.600000 0.000000 0.300000
0.091141 -0.417740 0.296273 0.000000 0.500000 0.500000
-0.174603 -0.014557 -0.079000 0.000000 0.500000 0.500000
-0.160288 0.038448 0.149992 0.000000 0.500000 0.500000
-0.159196 -0.829290 0.095436 0.000000 0.500000 0.500000
0.101994 -0.816148 0.276489 0.000000 0.500000 0.500000
0.041402 0.884477 0.138782 0.600000 0.000000 0.300000
0.075775 -0.574369 0.375490 0.000000 0.500000 0.500000
-0.018950 0.517307 -0.374721 0.000000 0.500000 0.500000
-0.146422 -0.403076 0.196880 0.000000 0.500000 0.500000
-0.122678 0.191667 -0.184484 0.000000 0.500000 0.500000
-0.028658 0.574453 -0.317574 0.000000 0.500000 0.500000
-0.111143 -0.434708 0.278295 0.000000 0.500000 0.500000
0.177174 0.337787 -0.202821 0.000000 0.500000 0.500000
0.053045 0.184734 -0.337261 0.000000 0.500000 0.500000
0.204087 0.382851 0.079462 0.000000 0.500000 0.500000
0.014456 -0.857287 -0.209703 0.000000 0.500000 0.500000
0.185228 -0.586645 0.172058 0.000000 0.500000 0.500000
-0.068757 0.606130 0.134999 0.000000 0.500000 0.500000
0.119455 0.378317 -0.329582 0.000000 0.500000 0.500000
0.115801 0.557476 -0.243176 0.000000 0.500000 0.500000
0.207290 0.242569 0.003487 0.000000 0.500000 0.500000
0.024466 0.455427 -0.377605 0.000000 0.500000 0.500000
0.090405 0.687821 0.071111 0.300000 0.600000 0.000000
0.056338 -0.702723 -0.377605 0.000000 0.500000 0.500000
0.162255 0.172850 -0.087927 0.000000 0.500000 0.500000
-0.104870 0.711570 -0.068443 0.300000 0.600000 0.000000
0.162803 0.549977 -0.115354 0.000000 0.500000 0.500000
0.148696 -0.628590 -0.273794 0.000000 0.500000 0.500000
0.202253 0.260884 0.091163 0.000000 0.500000 0.500000
0.206291 0.465264 0.064564 0.000000 0.500000 0.500000
-0.140083 0.903069 -0.060184 0.600000 0.000000 0.300000
-0.131367 -0.182791 -0.238648 0.000000 0.500000 0.500000
0.122285 0.912198 0.073157 0.600000 0.000000 0.300000
0.164539 0.149460 0.071241 0.000000 0.500000 0.500000
0.174079 -0.809482 0.050774 0.000000 0.500000 0.500000
-0.021378 0.595111 -0.181961 0.000000 0.500000 0.500000
0.191704 -0.484177 -0.008281 0.000000 0.500000 0.500000
0.156077 -0.400534 -0.126697 0.000000 0.500000 0.500000
0.094092 0.226369 -0.342612 0.000000 0.500000 0.500000
-0.179467 -0.211505 -0.016076 0.000000 0.500000 0.500000
0.019253 0.595111 0.026249 0.300000 0.600000 0.000000
0.063927 0.412679 0.375490 0.000000 0.500000 0.500000
0.115474 0.826365 0.082421 0.600000 0.000000 0.300000
0.112790 0.695853 0.071468 0.300000 0.600000 0.000000
-0.154434 -0.127107 -0.174189 0.000000 0.500000 0.500000
-0.140792 -0.847476 0.095409 0.000000 0.500000 0.500000
-0.011781 0.406620 0.375490 0.000000 0.500000 0.500000
0.145593 -0.825778 0.129647 0.000000 0.500000 0.500000
0.096626 -0.722471 -0.365185 0.000000 0.500000 0.500000
0.169072 -0.036721 0.003273 0.000000 0.500000 0.500000
-0.015717 0.595111 -0.012564 0.300000 0.600000 0.000000
-0.219258 0.343135 -0.027779 0.000000 0.500000 0.500000
-0.119840 -0.622578 0.343942 0.000000 0.500000 0.500000
0.011275 0.615165 -0.102279 0.000000 0.500000 0.500000
-0.137165 0.864019 -0.067659 0.600000 0.000000 0.300000
0.038209 0.191667 -0.150984 0.000000 0.500000 0.500000
0.118596 0.702416 0.020826 0.300000 0.600000 0.000000
-0.142274 -0.211906 0.207804 0.000000 0.500000 0.500000
0.133893 -0.063527 0.201041 0.000000 0.500000 0.500000
0.078498 0.354711 -0.377605 0.000000 0.500000 0.500000
0.006365 0.610282 -0.151124 0.000000 0.500000 0.500000
-0.145428 0.774829 0.045558 0.600000 0.000000 0.300000
0.083257 -0.853020 0.231716 0.000000 0.500000 0.500000
-0.217410 -0.657314 -0.063403 0.000000 0.500000 0.500000
0.001917 0.576917 0.312995 0.000000 0.500000 0.500000
0.197045 -0.558791 -0.126501 0.000000 0.500000 0.500000
0.002609 0.595111 -0.208894 0.000000 0.500000 0.500000
0.164087 -0.682955 0.235177 0.000000 0.500000 0.500000
0.156029 -0.513761 -0.258517 0.000000 0.500000 0.500000
0.107943 0.082872 0.262906 0.000000 0.500000 0.500000
0.170542 -0.781330 -0.206958 0.000000 0.500000 0.500000
-0.119668 0.791173 -0.093722 0.600000 0.000000 0.300000
0.107566 0.702416 -0.073611 0.300000 0.600000 0.000000
0.136554 -0.847878 0.032989 0.000000 0.500000 0.500000
0.124037 -0.033010 0.227000 0.000000 0.500000 0.500000
-0.166192 0.556591 0.118757 0.000000 0.500000 0.500000
-0.144108 -0.312422 -0.205088 0.000000 0.500000 0.500000
-0.046181 0.716187 0.077045 0.600000 0.000000 0.300000
0.028851 0.191667 -0.014644 0.000000 0.500000 0.500000
-0.000719 0.985149 -0.025206 0.600000 0.000000 0.300000
-0.154177 -0.421803 0.173045 0.000000 0.500000 0.500000
-0.140752 -0.690672 -0.311314 0.000000 0.500000 0.500000
-0.096203 0.839527 0.114560 0.600000 0.000000 0.300000
0.072753 0.604908 0.111739 0.000000 0.500000 0.500000
0.067876 0.569311 -0.308335 0.000000 0.500000 0.500000
-0.217628 0.472105 -0.059198 0.000000 0.500000 0.500000
0.125400 0.831978 -0.068381 0.600000 0.000000 0.300000
-0.096472 -0.227902 0.305642 0.000000 0.500000 0.500000
0.166249 -0.124903 -0.059792 0.000000 0.500000 0.500000
-0.026984 0.604553 -0.206177 0.000000 0.500000 0.500000
0.065045 0.338914 0.375490 0.000000 0.500000 0.500000
-0.189861 -0.651735 0.195880 0.000000 0.500000 0.500000
0.139395 0.582246 0.044935 0.000000 0.500000 0.500000
0.066403 0.427322 0.375490 0.000000 0.500000 0.500000
-0.179988 -0.062158 0.003911 0.000000 0.500000 0.500000
-0.118154 -0.598859 -0.348686 0.000000 0.500000 0.500000
-0.174219 -0.612434 0.237331 0.000000 0.500000 0.500000
-0.140914 -0.794561 -0.271051 0.000000 0.500000 0.500000
-0.135099 0.890358 -0.072736 0.600000 0.000000 0.300000
0.168589 0.112135 0.012594 0.000000 0.500000 0.500000
0.154101 -0.192069 -0.134148 0.000000 0.500000 0.500000
-0.212551 0.470268 0.095317 0.000000 0.500000 0.500000
-0.201578 0.532947 -0.011018 0.000000 0.500000 0.500000
-0.108047 0.191667 -0.269992 0.000000 0.500000 0.500000
0.090171 -0.150863 -0.300314 0.000000 0.500000 0.500000
0.123499 -0.006164 -0.230533 0.000000 0.500000 0.500000
0.077874 0.595111 -0.031523 0.300000 0.600000 0.000000
-0.138818 -0.109934 0.216909 0.000000 0.500000 0.500000
0.079939 0.716187 -0.096506 0.600000 0.000000 0.300000
0.189789 0.220415 0.020104 0.000000 0.500000 0.500000
0.143808 -0.302735 -0.172973 0.000000 0.500000 0.500000
0.041941 -0.428039 0.335146 0.000000 0.500000 0.500000
0.149357 -0.835590 0.023362 0.000000 0.500000 0.500000
-0.122197 -0.017972 0.256344 0.000000 0.500000 0.500000
0.196901 -0.770676 -0.127417 0.000000 0.500000 0.500000
0.113837 0.729314 -0.014655 0.300000 0.600000 0.000000
0.169064 -0.705499 -0.224183 0.000000 0.500000 0.500000
-0.063026 -0.655658 -0.377605 0.000000 0.500000 0.500000
-0.178629 0.144242 0.030104 0.000000 0.500000 0.500000
-0.019057 0.191667 0.244919 0.000000 0.500000 0.500000
0.168271 -0.474747 -0.141880 0.000000 0.500000 0.500000
-0.173124 -0.631043 -0.242328 0.000000 0.500000 0.500000
-0.110143 0.191667 -0.232271 0.000000 0.500000 0.500000
0.054133 -0.796637 -0.357566 0.000000 0.500000 0.500000
0.063999 0.611451 -0.016533 0.000000 0.500000 0.500000
-0.079376 -0.320306 -0.334419 0.000000 0.500000 0.500000
-0.107883 -0.606708 0.362590 0.000000 0.500000 0.500000
0.010891 0.191667 0.077777 0.000000 0.500000 0.500000
-0.014906 0.736198 -0.023243 0.300000 0.600000 0.000000
-0.003401 0.189964 -0.337261 0.000000 0.500000 0.500000
0.140615 -0.207776 -0.185014 0.000000 0.500000 0.500000
0.058841 0.217053 0.354185 0.000000 0.500000 0.500000
-0.127712 0.695853 0.078245 0.300000 0.600000 0.000000
-0.168480 0.539617 -0.180326 0.000000 0.500000 0.500000
-0.219763 -0.664434 0.015921 0.000000 0.500000 0.500000
0.125370 0.109336 -0.225604 0.000000 0.500000 0.500000
-0.178312 -0.003274 -0.038322 0.000000 0.500000 0.500000
-0.075086 0.649611 0.096702 0.300000 0.600000 0.000000
0.066453 0.716187 0.018760 0.600000 0.000000 0.300000
0.079625 -0.804329 0.338209 0.000000 0.500000 0.500000
0.086728 0.059916 0.303764 0.000000 0.500000 0.500000
0.118552 0.564616 0.213699 0.000000 0.500000 0.500000
-0.108697 0.602520 0.038989 0.000000 0.500000 0.500000
0.011802 0.695853 -0.127779 0.300000 0.600000 0.000000
0.119862 -0.302516 -0.240114 0.000000 0.500000 0.500000
-0.218928 0.513770 0.032029 0.000000 0.500000 0.500000
0.165033 -0.481952 0.173062 0.000000 0.500000 0.500000
0.003237 0.213346 0.351406 0.000000 0.500000 0.500000
0.068608 -0.199288 0.332024 0.000000 0.500000 0.500000
-0.110875 0.372541 0.357922 0.000000 0.500000 0.500000
0.139712 0.211202 -0.229109 0.000000 0.500000 0.500000
-0.047329 0.595111 0.022000 0.000000 0.500000 0.500000
-0.202939 0.323799 0.146553 0.000000 0.500000 0.500000
-0.210491 0.236234 0.061109 0.000000 0.500000 0.500000
-0.179153 -0.295577 -0.022119 0.000000 0.500000 0.500000
-0.214359 0.478460 -0.085897 0.000000 0.500000 0.500000
0.136577 0.063193 -0.196085 0.000000 0.500000 0.500000
0.145956 0.113556 0.162757 0.000000 0.500000 0.500000
-0.016034 0.025618 -0.337261 0.000000 0.500000 0.500000
0.081529 -0.680729 0.375490 0.000000 0.500000 0.500000
0.117106 0.595111 0.050788 0.000000 0.500000 0.500000
0.150880 -0.455490 0.149004 0.000000 0.500000 0.500000
0.049015 0.390466 0.375490 0.000000 0.500000 0.500000
0.050879 -0.016257 -0.337261 0.000000 0.500000 0.500000
0.167057 -0.007218 -0.044228 0.000000 0.500000 0.500000
-0.138379 0.188646 -0.220179 0.000000 0.500000 0.500000
-0.128528 -0.151311 0.243771 0.000000 0.500000 0.500000
0.154530 0.414514 0.260094 0.000000 0.500000 0.500000
0.168224 -0.086774 0.019625 0.000000 0.500000 0.500000
-0.151889 0.833620 -0.013499 0.600000 0.000000 0.300000
-0.007682 -0.857287 -0.294264 0.000000 0.500000 0.500000
-0.219513 -0.594977 -0.022867 0.000000 0.500000 0.500000
-0.113148 0.219316 -0.320169 0.000000 0.500000 0.500000
0.136565 0.107013 0.194003 0.000000 0.500000 0.500000
-0.030382 0.595111 -0.279758 0.000000 0.500000 0.500000
-0.021147 0.867350 0.144999 0.600000 0.000000 0.300000
0.139690 0.972971 0.022660 0.600000 0.000000 0.300000
0.142068 -0.837170 -0.086090 0.000000 0.500000 0.500000
0.049707 0.600051 -0.229668 0.000000 0.500000 0.500000
0.166681 -0.347948 -0.051484 0.000000 0.500000 0.500000
-0.140236 0.521108 0.295356 0.000000 0.500000 0.500000
-0.153731 0.354598 -0.285538 0.000000 0.500000 0.500000
-0.065638 -0.857287 0.124700 0.000000 0.500000 0.500000
-0.111407 0.715721 0.056173 0.300000 0.600000 0.000000
0.208841 0.283885 -0.017541 0.000000 0.500000 0.500000
0.114454 -0.401313 0.249977 0.000000 0.500000 0.500000
0.042577 0.985149 -0.060477 0.600000 0.000000 0.300000
-0.201553 -0.790989 -0.074663 0.000000 0.500000 0.500000
-0.034440 0.716187 0.131671 0.600000 0.000000 0.300000
-0.134347 -0.043003 -0.230799 0.000000 0.500000 0.500000
-0.201806 0.348359 -0.152942 0.000000 0.500000 0.500000
-0.215130 -0.778950 -0.061952 0.000000 0.500000 0.500000
-0.047217 0.281444 -0.377605 0.000000 0.500000 0.500000
-0.103883 -0.801798 0.322143 0.000000 0.500000 0.500000
0.028555 0.985149 0.024235 0.600000 0.000000 0.300000
-0.056699 0.531963 -0.360064 0.000000 0.500000 0.500000
-0.098516 0.177013 -0.304569 0.000000 0.500000 0.500000
-0.054525 -0.430295 -0.337261 0.000000 0.500000 0.500000
-0.123128 0.652676 0.023406 0.300000 0.600000 0.000000
-0.012187 0.716187 -0.007348 0.600000 0.000000 0.300000
-0.098379 -0.670820 0.375490 0.000000 0.500000 0.500000
-0.027051 -0.600325 0.375490 0.000000 0.500000 0.500000
-0.150902 0.974281 0.019697 0.600000 0.000000 0.300000
-0.176854 -0.555031 0.230389 0.000000 0.500000 0.500000
0.181487 0.430439 0.186170 0.000000 0.500000 0.500000
0.166507 -0.439874 0.052714 0.000000 0.500000 0.500000
-0.135163 0.116196 -0.228650 0.000000 0.500000 0.500000
0.077064 0.787193 0.121032 0.600000 0.000000 0.300000
-0.111592 0.260027 -0.358920 0.000000 0.500000 0.500000
0.066789 0.391557 -0.377605 0.000000 0.500000 0.500000
-0.072626 -0.848120 -0.287187 0.000000 0.500000 0.500000
-0.038658 -0.419475 0.335146 0.000000 0.500000 0.500000
-0.149089 -0.286446 0.189853 0.000000 0.500000 0.500000
-0.133854 -0.789825 -0.295601 0.000000 0.500000 0.500000
0.206836 0.380637 -0.056186 0.000000 0.500000 0.500000
-0.130995 -0.251794 0.237514 0.000000 0.500000 0.500000
-0.211397 -0.496441 0.015135 0.000000 0.500000 0.500000
-0.178965 -0.372618 -0.025750 0.000000 0.500000 0.500000
-0.092140 0.867195 0.117548 0.600000 0.000000 0.300000
0.161873 -0.553870 -0.243125 0.000000 0.500000 0.500000
-0.087389 -0.059958 0.319808 0.000000 0.500000 0.500000
0.039119 0.191667 0.220359 0.000000 0.500000 0.500000
0.111147 0.716187 0.043445 0.600000 0.000000 0.300000
-0.103792 -0.068441 -0.295008 0.000000 0.500000 0.500000
0.023858 0.985149 -0.142610 0.600000 0.000000 0.300000
0.047270 0.761661 0.136209 0.600000 0.000000 0.300000
-0.159011 0.045582 -0.156927 0.000000 0.500000 0.500000
-0.184126 0.304524 0.211234 0.000000 0.500000 0.500000
0.141583 0.524954 0.262389 0.000000 0.500000 0.500000
0.107937 -0.085886 -0.265033 0.000000 0.500000 0.500000
-0.147243 -0.045398 0.194717 0.000000 0.500000 0.500000
-0.208846 -0.630487 0.118952 0.000000 0.500000 0.500000
-0.145731 -0.620021 0.299312 0.000000 0.500000 0.500000
0.130264 -0.313544 0.210599 0.000000 0.500000 0.500000
-0.207367 0.281696 0.128381 0.000000 0.500000 0.500000
-0.168628 -0.713059 -0.254172 0.000000 0.500000 0.500000
0.140577 0.762857 -0.017721 0.600000 0.000000 0.300000
0.135789 0.292902 0.297310 0.000000 0.500000 0.500000
-0.151617 -0.316423 -0.184816 0.000000 0.500000 0.500000
0.206366 -0.513162 0.063119 0.000000 0.500000 0.500000
-0.046586 0.383140 -0.377605 0.000000 0.500000 0.500000
0.163412 -0.352846 0.078430 0.000000 0.500000 0.500000
0.036245 0.595111 -0.142520 0.000000 0.500000 0.500000
-0.015239 0.549493 -0.342534 0.000000 0.500000 0.500000
0.133292 -0.477482 -0.254100 0.000000 0.500000 0.500000
0.141612 0.009949 -0.181256 0.000000 0.500000 0.500000
-0.128486 0.191667 -0.127909 0.000000 0.500000 0.500000
0.049099 0.191667 0.072606 0.000000 0.500000 0.500000
0.014496 0.992035 0.027775 0.600000 0.000000 0.300000
-0.084932 0.595111 0.181407 0.000000 0.500000 0.500000
0.085942 0.716187 -0.112551 0.600000 0.000000 0.300000
-0.158257 0.558560 0.142856 0.000000 0.500000 0.500000
-0.153095 0.128241 -0.179241 0.000000 0.500000 0.500000
0.068469 -0.263237 -0.334355 0.000000 0.500000 0.500000
0.137676 -0.157959 -0.193191 0.000000 0.500000 0.500000
0.043855 -0.546281 0.375490 0.000000 0.500000 0.500000
-0.178853 -0.347776 0.025798 0.000000 0.500000 0.500000
-0.161109 -0.629674 -0.270887 0.000000 0.500000 0.500000
-0.034629 0.309559 0.375490 0.000000 0.500000 0.500000
-0.059272 -0.702235 0.375490 0.000000 0.500000 0.500000
-0.178560 0.159837 0.031440 0.000000 0.500000 0.500000
0.166883 0.141269 -0.047581 0.000000 0.500000 0.500000
-0.083504 -0.643434 -0.377605 0.000000 0.500000 0.500000
0.099616 0.237255 0.347008 0.000000 0.500000 0.500000
0.198584 -0.638742 0.114567 0.000000 0.500000 0.500000
-0.162304 -0.829623 0.073458 0.000000 0.500000 0.500000
-0.000376 0.716187 0.137448 0.600000 0.000000 0.300000
0.121839 0.191667 0.132875 0.000000 0.500000 0.500000
0.129777 -0.478345 0.260406 0.000000 0.500000 0.500000
-0.043883 0.716187 0.056059 0.600000 0.000000 0.300000
-0.116041 -0.090349 -0.270683 0.000000 0.500000 0.500000
-0.129635 -0.337174 0.241096 0.000000 0.500000 0.500000
-0.132504 0.238212 0.313493 0.000000 0.500000 0.500000
0.113613 0.597217 0.080114 0.000000 0.500000 0.500000
0.160422 0.561573 -0.040748 0.000000 0.500000 0.500000
-0.087293 -0.248227 -0.322072 0.000000 0.500000 0.500000
0.044128 -0.831199 -0.323004 0.000000 0.500000 0.500000
-0.132676 0.731723 -0.076031 0.600000 0.000000 0.300000
-0.104131 -0.857287 0.043004 0.000000 0.500000 0.500000
0.021010 0.191667 0.040473 0.000000 0.500000 0.500000
-0.169298 0.165963 -0.112835 0.000000 0.500000 0.500000
0.192174 0.343811 -0.147976 0.000000 0.500000 0.500000
0.160479 0.161119 -0.099252 0.000000 0.500000 0.500000
-0.120443 0.992035 -0.026416 0.600000 0.000000 0.300000
0.180504 0.457028 -0.191990 0.000000 0.500000 0.500000
-0.098782 0.817840 -0.114527 0.600000 0.000000 0.300000
0.089756 -0.506168 -0.373859 0.000000 0.500000 0.500000
0.018293 0.441238 0.375490 0.000000 0.500000 0.500000
0.031985 0.037543 -0.337261 0.000000 0.500000 0.500000
0.111506 0.294421 -0.341978 0.000000 0.500000 0.500000
-0.123596 -0.821923 0.242491 0.000000 0.500000 0.500000
-0.193514 -0.485620 -0.112248 0.000000 0.500000 0.500000
0.187586 -0.545600 -0.165278 0.000000 0.500000 0.500000
-0.148778 -0.657602 0.293261 0.000000 0.500000 0.500000
-0.022271 0.417504 -0.377605 0.000000 0.500000 0.500000
-0.216698 -0.544865 0.068859 0.000000 0.500000 0.500000
-0.091503 0.600359 0.155127 0.000000 0.500000 0.500000
0.026935 0.289160 -0.377605 0.000000 0.500000 0.500000
-0.183461 -0.710385 0.212988 0.000000 0.500000 0.500000
-0.141428 -0.354341 0.210033 0.000000 0.500000 0.500000
-0.168008 0.234479 0.230489 0.000000 0.500000 0.500000
0.106877 0.373933 -0.349197 0.000000 0.500000 0.500000
0.191333 0.323416 0.149030 0.000000 0.500000 0.500000
0.127255 0.191667 0.042141 0.000000 0.500000 0.500000
-0.000301 0.770225 -0.148278 0.600000 0.000000 0.300000
0.058318 0.822782 0.131365 0.600000 0.000000 0.300000
-0.067786 0.835267 0.132308 0.600000 0.000000 0.300000
0.155649 -0.021205 0.126197 0.000000 0.500000 0.500000
-0.175630 -0.820798 -0.015600 0.000000 0.500000 0.500000
0.076477 -0.393304 0.319750 0.000000 0.500000 0.500000
-0.211710 -0.702462 0.100679 0.000000 0.500000 0.500000
0.027626 -0.857287 0.184632 0.000000 0.500000 0.500000
0.155546 0.428421 -0.259790 0.000000 0.500000 0.500000
-0.124205 -0.777999 -0.336654 0.000000 0.500000 0.500000
-0.092152 0.985149 -0.008017 0.600000 0.000000 0.300000
0.092504 0.347359 0.369497 0.000000 0.500000 0.500000
0.077772 -0.752603 -0.377605 0.000000 0.500000 0.500000
-0.025390 0.985149 0.047163 0.600000 0.000000 0.300000
-0.005050 0.992035 -0.095804 0.600000 0.000000 0.300000
0.025673 0.191667 0.139875 0.000000 0.500000 0.500000
0.160045 -0.824658 -0.030464 0.000000 0.500000 0.500000
0.127010 0.119415 0.219172 0.000000 0.500000 0.500000
-0.175357 0.556772 -0.056585 0.000000 0.500000 0.500000
0.175972 0.317382 0.203874 0.000000 0.500000 0.500000
-0.032969 0.601377 -0.236698 0.000000 0.500000 0.500000
-0.217964 -0.562901 -0.052727 0.000000 0.500000 0.500000
0.145420 -0.713827 -0.280302 0.000000 0.500000 0.500000
0.130702 0.767333 0.054052 0.600000 0.000000 0.300000
-0.164838 -0.021728 -0.134946 0.000000 0.500000 0.500000
0.111189 0.083039 -0.258576 0.000000 0.500000 0.500000
-0.105606 0.026699 0.289290 0.000000 0.500000 0.500000
-0.160193 -0.160231 -0.152469 0.000000 0.500000 0.500000
0.082640 -0.278564 -0.312254 0.000000 0.500000 0.500000
0.131863 0.545426 -0.234821 0.000000 0.500000 0.500000
-0.117635 -0.752742 -0.349496 0.000000 0.500000 0.500000
-0.199538 0.230556 -0.108265 0.000000 0.500000 0.500000
0.027334 0.992035 -0.118034 0.600000 0.000000 0.300000
0.062968 -0.857287 0.245993 0.000000 0.500000 0.500000
0.195732 0.526677 -0.033665 0.000000 0.500000 0.500000
0.120829 -0.844672 -0.151440 0.000000 0.500000 0.500000
0.201436 -0.692046 0.096374 0.000000 0.500000 0.500000
0.122210 -0.179153 0.231814 0.000000 0.500000 0.500000
0.114475 0.535162 0.293525 0.000000 0.500000 0.500000
0.059666 0.592375 -0.277274 0.000000 0.500000 0.500000
-0.100049 -0.812155 0.308934 0.000000 0.500000 0.500000
0.029056 0.595111 0.176710 0.000000 0.500000 0.500000
0.100225 0.882906 -0.104073 0.600000 0.000000 0.300000
0.072603 0.595111 -0.003882 0.300000 0.600000 0.000000
0.008916 0.985149 0.141770 0.600000 0.000000 0.300000
0.090722 0.901938 0.110100 0.600000 0.000000 0.300000
-0.167348 -0.124625 0.123159 0.000000 0.500000 0.500000
0.067735 0.527424 -0.364603 0.000000 0.500000 0.500000
-0.197286 0.234167 -0.136944 0.000000 0.500000 0.500000
0.080976 0.377603 0.375490 0.000000 0.500000 0.500000
-0.084588 0.012223 -0.326291 0.000000 0.500000 0.500000
-0.177831 -0.254607 -0.047594 0.000000 0.500000 0.500000
-0.172685 -0.800817 -0.168276 0.000000 0.500000 0.500000
0.154718 -0.253709 0.129709 0.000000 0.500000 0.500000
0.077207 0.925413 0.120917 0.600000 0.000000 0.300000
0.161339 0.481758 -0.244531 0.000000 0.500000 0.500000
0.103674 0.350371 0.352078 0.000000 0.500000 0.500000
0.027349 -0.857287 -0.049253 0.000000 0.500000 0.500000
-0.081355 0.150292 0.329218 0.000000 0.500000 0.500000
-0.147157 0.744585 -0.042064 0.600000 0.000000 0.300000
0.157292 -0.025591 -0.119585 0.000000 0.500000 0.500000
0.099209 -0.636961 -0.361156 0.000000 0.500000 0.500000
-0.200934 0.226022 -0.077403 0.000000 0.500000 0.500000
-0.121292 0.633892 0.033627 0.300000 0.600000 0.000000
0.081514 -0.855870 -0.230956 0.000000 0.500000 0.500000
-0.088676 0.985149 -0.053244 0.600000 0.000000 0.300000
0.060968 -0.070624 0.335146 0.000000 0.500000 0.500000
-0.112969 0.017086 0.274669 0.000000 0.500000 0.500000
0.195380 -0.489895 -0.020179 0.000000 0.500000 0.500000
-0.104493 -0.857287 -0.116563 0.000000 0.500000 0.500000
-0.111781 -0.852452 0.188075 0.000000 0.500000 0.500000
-0.217232 0.483976 0.064716 0.000000 0.500000 0.500000
0.134238 0.523528 -0.282260 0.000000 0.500000 0.500000
0.151492 -0.001825 0.141876 0.000000 0.500000 0.500000
-0.103051 -0.727476 0.370125 0.000000 0.500000 0.500000
0.014875 -0.038759 -0.337261 0.000000 0.500000 0.500000
0.046388 0.716187 -0.054962 0.600000 0.000000 0.300000
-0.129547 0.346544 -0.330917 0.000000 0.500000 0.500000
-0.164800 -0.306611 -0.135091 0.000000 0.500000 0.500000
-0.174736 -0.591256 -0.238083 0.000000 0.500000 0.500000
0.181454 -0.644321 0.186294 0.000000 0.500000 0.500000
-0.105534 0.191667 -0.175830 0.000000 0.500000 0.500000
-0.021068 -0.094538 0.335146 0.000000 0.500000 0.500000
0.160968 -0.409533 -0.096134 0.000000 0.500000 0.500000
-0.106659 -0.237027 -0.289315 0.000000 0.500000 0.500000
0.048090 0.595111 0.034631 0.300000 0.600000 0.000000
-0.010625 0.198896 0.340568 0.000000 0.500000 0.500000
-0.174786 -0.428754 -0.077827 0.000000 0.500000 0.500000
0.061160 0.716187 0.001163 0.600000 0.000000 0.300000
-0.219439 0.429025 -0.024293 0.000000 0.500000 0.500000
-0.081955 0.595111 -0.003462 0.300000 0.600000 0.000000
0.014142 0.363475 -0.377605 0.000000 0.500000 0.500000
0.054347 -0.768493 -0.377605 0.000000 0.500000 0.500000
-0.176382 0.371089 0.231634 0.000000 0.500000 0.500000
-0.039599 0.217001 -0.356262 0.000000 0.500000 0.500000
-0.103272 0.571773 0.256114 0.000000 0.500000 0.500000
0.191586 -0.789568 -0.077578 0.000000 0.500000 0.500000
0.142373 -0.146727 0.176270 0.000000 0.500000 0.500000
-0.177141 -0.119690 0.058783 0.000000 0.500000 0.500000
0.112347 -0.527080 0.338551 0.000000 0.500000 0.500000
-0.067735 0.596658 0.255603 0.000000 0.500000 0.500000
0.113098 -0.303564 0.252669 0.000000 0.500000 0.500000
-0.060239 0.191667 -0.115684 0.000000 0.500000 0.500000
-0.103216 -0.434256 -0.296153 0.000000 0.500000 0.500000
0.159214 -0.814287 0.122353 0.000000 0.500000 0.500000
0.189134 0.293145 0.157324 0.000000 0.500000 0.500000
0.083044 0.633505 -0.082495 0.300000 0.600000 0.000000
-0.058129 0.615165 -0.024073 0.000000 0.500000 0.500000
0.136412 -0.817996 0.191438 0.000000 0.500000 0.500000
-0.057706 0.595111 -0.176491 0.000000 0.500000 0.500000
0.080120 0.583458 0.254369 0.000000 0.500000 0.500000
-0.070409 0.969561 -0.132979 0.600000 0.000000 0.300000
0.027100 0.595111 -0.023767 0.000000 0.500000 0.500000
-0.154848 -0.465346 -0.201106 0.000000 0.500000 0.500000
-0.064643 0.716187 0.007196 0.600000 0.000000 0.300000
-0.176362 -0.222467 -0.067778 0.000000 0.500000 0.500000
0.071465 0.458580 0.375490 0.000000 0.500000 0.500000
-0.116334 0.987562 -0.096520 0.600000 0.000000 0.300000
-0.136203 -0.345131 -0.225912 0.000000 0.500000 0.500000
0.128761 0.702416 -0.055317 0.300000 0.600000 0.000000
0.177511 0.203319 -0.011405 0.000000 0.500000 0.500000
0.084281 0.597059 -0.193169 0.000000 0.500000 0.500000
0.167010 -0.316891 -0.045137 0.000000 0.500000 0.500000
0.168721 0.311317 -0.225088 0.000000 0.500000 0.500000
-0.168189 -0.522416 0.253212 0.000000 0.500000 0.500000
0.018969 0.595111 -0.114021 0.300000 0.600000 0.000000
0.128273 0.438379 -0.314351 0.000000 0.500000 0.500000
-0.112027 0.992035 0.054206 0.600000 0.000000 0.300000
-0.058788 0.615165 0.013758 0.000000 0.500000 0.500000
-0.026191 -0.320348 -0.337261 0.000000 0.500000 0.500000
-0.095109 0.785849 -0.117467 0.600000 0.000000 0.300000
-0.101795 0.692311 0.070634 0.300000 0.600000 0.000000
-0.155509 -0.543447 0.279894 0.000000 0.500000 0.500000
-0.057149 0.705774 -0.109426 0.300000 0.600000 0.000000
0.070135 -0.857287 0.155247 0.000000 0.500000 0.500000
0.182780 0.354232 -0.183405 0.000000 0.500000 0.500000
-0.179843 -0.340916 -0.008830 0.000000 0.500000 0.500000
-0.177391 -0.364452 -0.056087 0.000000 0.500000 0.500000
-0.128078 0.242460 -0.329042 0.000000 0.500000 0.500000
-0.097753 -0.287957 0.303644 0.000000 0.500000 0.500000
-0.107660 -0.167347 0.285211 0.000000 0.500000 0.500000
0.073419 0.444980 -0.377605 0.000000 0.500000 0.500000
0.170967 0.402540 0.217056 0.000000 0.500000 0.500000
0.138667 0.807529 0.031890 0.600000 0.000000 0.300000
0.154679 0.032074 -0.131972 0.000000 0.500000 0.500000
-0.201185 -0.676224 -0.155285 0.000000 0.500000 0.500000
0.042121 0.985149 0.091181 0.600000 0.000000 0.300000
-0.197440 0.297736 -0.169410 0.000000 0.500000 0.500000
0.162630 0.252965 -0.241131 0.000000 0.500000 0.500000
0.155484 0.191667 -0.071136 0.000000 0.500000 0.500000
0.047365 -0.857287 0.029855 0.000000 0.500000 0.500000
-0.188627 -0.725034 0.199380 0.000000 0.500000 0.500000
-0.060775 -0.308631 0.335146 0.000000 0.500000 0.500000
0.130942 0.038612 0.208813 0.000000 0.500000 0.500000
0.176543 0.205457 -0.061006 0.000000 0.500000 0.500000
-0.092115 0.877291 -0.119863 0.600000 0.000000 0.300000
0.191771 0.380212 0.147379 0.000000 0.500000 0.500000
0.022963 0.564537 -0.327490 0.000000 0.500000 0.500000
0.167828 0.056835 -0.029361 0.000000 0.500000 0.500000
-0.191972 0.287040 -0.190032 0.000000 0.500000 0.500000
-0.169443 -0.420753 -0.111909 0.000000 0.500000 0.500000
0.093136 0.603072 0.056522 0.000000 0.500000 0.500000
-0.103667 -0.857287 -0.152736 0.000000 0.500000 0.500000
0.070420 -0.473077 0.349572 0.000000 0.500000 0.500000
-0.218314 -0.683113 -0.045981 0.000000 0.500000 0.500000
0.157566 0.538999 0.180490 0.000000 0.500000 0.500000
-0.007971 0.191667 -0.135693 0.000000 0.500000 0.500000
0.018109 0.477815 -0.377605 0.000000 0.500000 0.500000
-0.011011 0.733470 -0.148807 0.600000 0.000000 0.300000
-0.074648 0.722362 0.129629 0.600000 0.000000 0.300000
-0.146111 -0.848465 0.048482 0.000000 0.500000 0.500000
-0.122575 0.695853 -0.058537 0.300000 0.600000 0.000000
-0.133180 -0.412295 0.231758 0.000000 0.500000 0.500000
0.062313 -0.654906 -0.377605 0.000000 0.500000 0.500000
0.016005 0.985149 -0.087494 0.600000 0.000000 0.300000
0.057025 -0.857287 -0.242878 0.000000 0.500000 0.500000
-0.161868 -0.822153 0.123703 0.000000 0.500000 0.500000
-0.200915 -0.534700 0.154187 0.000000 0.500000 0.500000
-0.176970 -0.337216 0.061784 0.000000 0.500000 0.500000
-0.176345 -0.099715 0.065771 0.000000 0.500000 0.500000
-0.183670 0.492825 -0.214550 0.000000 0.500000 0.500000
0.024238 0.603566 -0.215662 0.000000 0.500000 0.500000
0.121709 0.037241 0.233134 0.000000 0.500000 0.500000
0.156929 0.191667 -0.043377 0.000000 0.500000 0.500000
-0.047636 0.992035 -0.002594 0.600000 0.000000 0.300000
0.018903 0.865396 -0.146149 0.600000 0.000000 0.300000
0.058878 -0.631135 -0.377605 0.000000 0.500000 0.500000
0.042206 0.277465 0.375490 0.000000 0.500000 0.500000
0.040191 0.595111 -0.194029 0.000000 0.500000 0.500000
-0.179848 -0.106521 -0.008725 0.000000 0.500000 0.500000
-0.172203 -0.252707 -0.094304 0.000000 0.500000 0.500000
0.077863 -0.622520 -0.377605 0.000000 0.500000 0.500000
-0.202667 0.248614 0.147579 0.000000 0.500000 0.500000
-0.081757 0.561181 -0.318822 0.000000 0.500000 0.500000
0.129641 -0.005009 -0.214357 0.000000 0.500000 0.500000
0.186909 0.218747 0.051481 0.000000 0.500000 0.500000
-0.091446 0.503465 0.375490 0.000000 0.500000 0.500000
0.081738 -0.563564 -0.377605 0.000000 0.500000 0.500000
-0.011357 0.457425 0.375490 0.000000 0.500000 0.500000
-0.117884 -0.545964 0.346993 0.000000 0.500000 0.500000
-0.084283 0.191667 0.222732 0.000000 0.500000 0.500000
-0.056135 0.191667 0.076721 0.000000 0.500000 0.500000
0.185281 -0.736433 0.171858 0.000000 0.500000 0.500000
0.037600 0.149118 0.335146 0.000000 0.500000 0.500000
0.044788 -0.852389 -0.301814 0.000000 0.500000 0.500000
-0.065195 0.551563 -0.340464 0.000000 0.500000 0.500000
0.145521 0.140142 0.164396 0.000000 0.500000 0.500000
-0.056378 0.539650 0.350262 0.000000 0.500000 0.500000
-0.000751 0.605940 -0.192851 0.000000 0.500000 0.500000
0.044481 0.985149 0.037181 0.600000 0.000000 0.300000
0.166685 -0.232203 -0.051406 0.000000 0.500000 0.500000
-0.073054 0.241242 -0.374443 0.000000 0.500000 0.500000
-0.125205 0.610610 -0.010099 0.300000 0.600000 0.000000
-0.029139 0.463502 -0.377605 0.000000 0.500000 0.500000
0.049476 0.247616 0.375490 0.000000 0.500000 0.500000
0.152938 0.069805 -0.138537 0.000000 0.500000 0.500000
0.159449 0.000815 -0.105824 0.000000 0.500000 0.500000
0.029876 0.595111 0.092529 0.000000 0.500000 0.500000
0.004329 0.615370 -0.120703 0.300000 0.600000 0.000000
0.126870 0.010558 0.219539 0.000000 0.500000 0.500000
0.128006 -0.404823 0.216548 0.000000 0.500000 0.500000
0.125049 -0.421746 0.224337 0.000000 0.500000 0.500000
0.096947 -0.696631 0.362570 0.000000 0.500000 0.500000
-0.133854 -0.555125 -0.324201 0.000000 0.500000 0.500000
0.141116 0.489140 0.286733 0.000000 0.500000 0.500000
-0.205016 0.349642 0.138720 0.000000 0.500000 0.500000
0.165432 -0.264760 0.065540 0.000000 0.500000 0.500000
0.205950 -0.522868 -0.069697 0.000000 0.500000 0.500000
0.124449 -0.669854 -0.321792 0.000000 0.500000 0.500000
-0.080324 -0.538252 -0.377605 0.000000 0.500000 0.500000
-0.071612 0.324559 0.375490 0.000000 0.500000 0.500000
0.144611 0.371464 0.279792 0.000000 0.500000 0.500000
0.121383 0.735016 -0.077543 0.600000 0.000000 0.300000
0.043247 0.776338 -0.139728 0.600000 0.000000 0.300000
0.013558 0.191667 0.004242 0.000000 0.500000 0.500000
-0.184483 0.396682 -0.212410 0.000000 0.500000 0.500000
0.106314 0.185968 -0.268257 0.000000 0.500000 0.500000
-0.037885 0.610869 -0.137907 0.000000 0.500000 0.500000
0.075702 -0.454905 -0.324550 0.000000 0.500000 0.500000
-0.114365 0.408517 0.352481 0.000000 0.500000 0.500000
-0.204502 -0.543402 -0.142774 0.000000 0.500000 0.500000
0.011447 -0.243277 0.335146 0.000000 0.500000 0.500000
-0.038813 0.191667 -0.071647 0.000000 0.500000 0.500000
-0.167321 0.548399 0.148312 0.000000 0.500000 0.500000
0.134939 -0.647954 -0.301114 0.000000 0.500000 0.500000
-0.130335 0.401273 0.327575 0.000000 0.500000 0.500000
0.208746 0.381725 0.017258 0.000000 0.500000 0.500000
-0.101811 0.191667 0.190885 0.000000 0.500000 0.500000
0.165205 0.006082 0.066989 0.000000 0.500000 0.500000
0.038895 0.412497 0.375490 0.000000 0.500000 0.500000
0.016311 -0.159250 0.335146 0.000000 0.500000 0.500000
-0.082802 0.602700 0.145596 0.000000 0.500000 0.500000
0.097768 -0.615964 -0.363404 0.000000 0.500000 0.500000
0.056203 0.985149 0.119360 0.600000 0.000000 0.300000
-0.148221 0.917002 -0.039340 0.600000 0.000000 0.300000
-0.134558 -0.820960 0.216811 0.000000 0.500000 0.500000
0.206968 0.455948 0.051520 0.000000 0.500000 0.500000
-0.153907 0.497804 -0.285189 0.000000 0.500000 0.500000
-0.059080 0.595111 0.002738 0.000000 0.500000 0.500000
-0.206185 -0.502536 0.111226 0.000000 0.500000 0.500000
0.163208 -0.617429 -0.239609 0.000000 0.500000 0.500000
0.206364 -0.737469 0.063167 0.000000 0.500000 0.500000
0.133053 0.783443 -0.050927 0.600000 0.000000 0.300000
0.115140 0.191667 -0.135602 0.000000 0.500000 0.500000
-0.093020 0.223870 -0.357888 0.000000 0.500000 0.500000
-0.172622 -0.121229 -0.091631 0.000000 0.500000 0.500000
-0.062605 0.992035 -0.051586 0.600000 0.000000 0.300000
-0.162101 0.513653 -0.268918 0.000000 0.500000 0.500000
-0.076912 -0.517271 0.375490 0.000000 0.500000 0.500000
-0.056615 0.985149 0.092719 0.600000 0.000000 0.300000
0.154866 0.220624 -0.209100 0.000000 0.500000 0.500000
0.150430 -0.597482 0.268236 0.000000 0.500000 0.500000
0.146980 0.412582 -0.277203 0.000000 0.500000 0.500000
-0.128639 0.494863 0.330219 0.000000 0.500000 0.500000
-0.143497 -0.230525 0.204583 0.000000 0.500000 0.500000
-0.060277 -0.203537 -0.337261 0.000000 0.500000 0.500000
-0.047147 0.185091 0.335146 0.000000 0.500000 0.500000
0.189387 -0.773349 -0.158487 0.000000 0.500000 0.500000
-0.043255 -0.853445 -0.300758 0.000000 0.500000 0.500000
-0.163212 -0.439303 -0.141080 0.000000 0.500000 0.500000
-0.210516 0.459825 -0.110412 0.000000 0.500000 0.500000
0.095013 0.695853 0.080307 0.300000 0.600000 0.000000
-0.022324 0.985149 0.082798 0.600000 0.000000 0.300000
-0.181080 -0.457384 0.034136 0.000000 0.500000 0.500000
0.011685 0.349664 0.375490 0.000000 0.500000 0.500000
0.080540 0.191667 -0.090669 0.000000 0.500000 0.500000
-0.217989 -0.576678 0.050127 0.000000 0.500000 0.500000
0.085702 0.191667 -0.303243 0.000000 0.500000 0.500000
-0.010782 -0.497223 0.367681 0.000000 0.500000 0.500000
0.200752 -0.757701 -0.102852 0.000000 0.500000 0.500000
0.135755 0.716187 -0.040076 0.600000 0.000000 0.300000
-0.118848 0.765639 -0.094838 0.600000 0.000000 0.300000
0.122154 0.453568 -0.325372 0.000000 0.500000 0.500000
0.163787 -0.108516 0.076036 0.000000 0.500000 0.500000
-0.075372 -0.857287 0.230261 0.000000 0.500000 0.500000
-0.179124 0.105031 0.020559 0.000000 0.500000 0.500000
-0.052607 0.985149 0.113470 0.600000 0.000000 0.300000
0.087610 -0.537448 0.375490 0.000000 0.500000 0.500000
-0.015869 0.840199 0.145584 0.600000 0.000000 0.300000
-0.031594 0.985149 0.008635 0.600000 0.000000 0.300000
-0.053162 0.606933 -0.159162 0.000000 0.500000 0.500000
-0.044351 0.985149 -0.139051 0.600000 0.000000 0.300000
-0.205625 -0.651531 0.136421 0.000000 0.500000 0.500000
0.144501 -0.300551 0.168245 0.000000 0.500000 0.500000
0.111440 0.611357 -0.030365 0.300000 0.600000 0.000000
0.062324 -0.815886 0.336202 0.000000 0.500000 0.500000
-0.112906 -0.199075 -0.276909 0.000000 0.500000 0.500000
0.191909 -0.746473 -0.148974 0.000000 0.500000 0.500000
-0.056337 -0.509487 -0.377605 0.000000 0.500000 0.500000
-0.027055 -0.142269 -0.337261 0.000000 0.500000 0.500000
-0.056950 0.595111 -0.021047 0.300000 0.600000 0.000000
0.201078 -0.576365 0.098657 0.000000 0.500000 0.500000
-0.216322 0.358101 -0.073373 0.000000 0.500000 0.500000
-0.053452 -0.857287 0.180500 0.000000 0.500000 0.500000
-0.144474 -0.795440 0.259915 0.000000 0.500000 0.500000
0.110688 0.716187 0.012066 0.600000 0.000000 0.300000
-0.085318 0.235125 0.367740 0.000000 0.500000 0.500000
-0.168044 -0.735096 0.253595 0.000000 0.500000 0.500000
-0.179088 -0.390065 -0.023376 0.000000 0.500000 0.500000
-0.130525 -0.480116 0.283616 0.000000 0.500000 0.500000
-0.217299 0.291582 0.063437 0.000000 0.500000 0.500000
-0.026096 -0.414399 -0.337261 0.000000 0.500000 0.500000
0.067039 0.606682 -0.104414 0.000000 0.500000 0.500000
0.053441 0.595111 -0.096619 0.300000 0.600000 0.000000
0.122148 0.265944 -0.325382 0.000000 0.500000 0.500000
-0.045530 -0.043965 0.335146 0.000000 0.500000 0.500000
0.016963 0.519829 -0.372198 0.000000 0.500000 0.500000
0.198242 -0.556029 0.116747 0.000000 0.500000 0.500000
-0.151469 -0.208065 0.183258 0.000000 0.500000 0.500000
0.063447 -0.854158 0.268525 0.000000 0.500000 0.500000
-0.216714 0.421126 -0.070876 0.000000 0.500000 0.500000
0.113314 0.644154 -0.018083 0.300000 0.600000 0.000000
0.178235 -0.482587 -0.125187 0.000000 0.500000 0.500000
0.021387 -0.093161 -0.337261 0.000000 0.500000 0.500000
0.080979 0.985149 -0.028160 0.600000 0.000000 0.300000
0.100745 0.614697 -0.057634 0.300000 0.600000 0.000000
0.116162 -0.575042 -0.334718 0.000000 0.500000 0.500000
0.164900 -0.515741 0.233035 0.000000 0.500000 0.500000
-0.002830 0.736198 0.006097 0.300000 0.600000 0.000000
0.009182 0.171844 -0.337261 0.000000 0.500000 0.500000
-0.108988 0.265681 0.360866 0.000000 0.500000 0.500000
-0.130172 0.166151 -0.241797 0.000000 0.500000 0.500000
-0.185143 0.199341 0.015648 0.000000 0.500000 0.500000
-0.193719 0.293811 0.181330 0.000000 0.500000 0.500000
-0.186004 -0.772153 0.206289 0.000000 0.500000 0.500000
-0.172378 0.094645 -0.093190 0.000000 0.500000 0.500000
0.101783 -0.371912 0.275140 0.000000 0.500000 0.500000
-0.048243 0.606480 -0.113331 0.300000 0.600000 0.000000
-0.000800 -0.013880 -0.337261 0.000000 0.500000 0.500000
-0.127506 0.079785 0.245799 0.000000 0.500000 0.500000
0.156836 -0.355534 0.120379 0.000000 0.500000 0.500000
-0.102001 -0.129588 0.296450 0.000000 0.500000 0.500000
0.096684 -0.784580 0.348192 0.000000 0.500000 0.500000
-0.069916 0.411073 -0.377605 0.000000 0.500000 0.500000
-0.063275 0.985149 0.041170 0.600000 0.000000 0.300000
-0.081578 -0.562284 -0.377605 0.000000 0.500000 0.500000
-0.040458 0.551382 -0.340645 0.000000 0.500000 0.500000
-0.187954 -0.467548 -0.050876 0.000000 0.500000 0.500000
0.119137 0.352620 0.327962 0.000000 0.500000 0.500000
0.138478 0.535106 -0.246470 0.000000 0.500000 0.500000
0.112726 0.660889 0.021788 0.300000 0.600000 0.000000
-0.158402 0.574693 0.035373 0.000000 0.500000 0.500000
0.098706 -0.158651 0.281251 0.000000 0.500000 0.500000
-0.219950 -0.572865 -0.014432 0.000000 0.500000 0.500000
-0.126168 0.436418 0.334072 0.000000 0.500000 0.500000
0.148167 -0.248720 0.154416 0.000000 0.500000 0.500000
0.086872 -0.618250 0.375490 0.000000 0.500000 0.500000
-0.024537 0.225171 -0.362389 0.000000 0.500000 0.500000
0.146640 0.088627 0.160175 0.000000 0.500000 0.500000
-0.130054 -0.006033 -0.242107 0.000000 0.500000 0.500000
-0.030603 -0.075256 -0.337261 0.000000 0.500000 0.500000
