ply
format ascii 1.0
element vertex 1249
property float x
property float y
property float z
property uchar red
property uchar green
property uchar blue
end_header
0.172729 -0.469879 0.096654 0 127 127
0.024124 0.386712 -0.377605 0 127 127
-0.076298 -0.823652 0.324674 0 127 127
0.066349 0.075963 0.335146 0 127 127
0.060643 0.985149 -0.082771 153 0 76
-0.218088 -0.597849 -0.050324 0 127 127
0.129789 -0.767041 -0.311341 0 127 127
0.133812 0.214461 0.249422 0 127 127
-0.219078 0.357140 0.029139 0 127 127
-0.011437 0.784806 0.146075 153 0 76
0.129137 -0.123470 -0.215684 0 127 127
-0.139438 -0.520769 0.311809 0 127 127
0.025149 0.517440 -0.374587 0 127 127
0.157845 -0.808609 0.150428 0 127 127
0.140923 0.963922 -0.015452 153 0 76
0.165315 0.325526 0.231943 0 127 127
-0.153006 -0.421853 0.177459 0 127 127
-0.191733 0.404753 -0.190934 0 127 127
0.106646 0.986166 -0.095357 153 0 76
0.140465 0.762059 0.015674 153 0 76
-0.178583 0.034879 0.030988 0 127 127
-0.102567 -0.569431 -0.372996 0 127 127
-0.112472 0.052251 -0.277771 0 127 127
-0.165280 -0.810979 0.154436 0 127 127
-0.008637 -0.281369 0.335146 0 127 127
0.166292 -0.141583 0.056860 0 127 127
-0.219579 0.465475 -0.021593 0 127 127
-0.106585 0.223944 0.334718 0 127 127
0.013460 0.966693 -0.146752 153 0 76
0.118911 -0.414013 0.240504 0 127 127
0.075104 -0.115163 0.321891 0 127 127
0.094595 -0.435001 -0.291529 0 127 127
-0.013926 0.438104 -0.377605 0 127 127
-0.130747 0.191667 0.036050 0 127 127
0.146065 -0.417064 0.162346 0 127 127
-0.012839 -0.353910 0.335146 0 127 127
-0.036078 0.860167 0.143344 153 0 76
-0.129343 -0.232985 0.241866 0 127 127
-0.046849 0.489346 0.375490 0 127 127
0.102028 -0.843365 -0.212645 0 127 127
0.024243 -0.590554 -0.377605 0 127 127
-0.100700 -0.425773 0.299034 0 127 127
0.208625 -0.561728 -0.021699 0 127 127
0.149492 -0.750192 0.270100 0 127 127
0.103193 -0.857287 0.161484 0 127 127
-0.133793 -0.460565 0.244349 0 127 127
-0.111809 0.175540 -0.279087 0 127 127
0.102792 -0.747932 -0.355569 0 127 127
-0.110774 0.597766 0.133560 0 127 127
0.182373 -0.565762 0.182827 0 127 127
-0.218306 0.309228 0.044011 0 127 127
0.122944 -0.221402 -0.231997 0 127 127
-0.093017 0.765697 0.116902 153 0 76
-0.052334 0.202691 -0.345529 0 127 127
-0.182670 -0.711227 0.215069 0 127 127
-0.140353 0.556387 0.208298 0 127 127
0.200789 -0.600999 -0.102618 0 127 127
0.051095 0.992035 -0.114771 153 0 76
-0.172801 -0.482516 -0.188825 0 127 127
-0.019907 0.725902 0.145136 153 0 76
0.015181 0.191667 -0.037705 0 127 127
-0.172312 0.100978 0.091501 0 127 127
0.128462 -0.636856 -0.313977 0 127 127
0.014013 0.598277 -0.266486 0 127 127
-0.169142 -0.667099 0.250703 0 127 127
-0.153225 0.979728 -0.001442 153 0 76
0.120175 0.278567 0.326344 0 127 127
-0.074139 -0.854038 -0.271416 0 127 127
0.168012 0.239690 -0.214762 0 127 127
0.166143 -0.428085 -0.061858 0 127 127
-0.115023 -0.839258 -0.218827 0 127 127
0.208649 -0.777043 -0.012650 0 127 127
-0.126050 0.438641 -0.336372 0 127 127
-0.107431 -0.692528 -0.365409 0 127 127
-0.066145 0.635536 0.103276 76 153 0
0.169251 0.110931 -0.000178 0 127 127
0.148118 -0.462528 -0.182133 0 127 127
0.031151 -0.263275 -0.337261 0 127 127
0.140433 -0.788059 -0.264722 0 127 127
0.169139 -0.224411 -0.004104 0 127 127
0.167860 -0.181954 -0.028751 0 127 127
0.107780 0.736198 -0.038084 76 153 0
-0.136330 0.727465 -0.069796 153 0 76
0.078097 -0.715481 0.375490 0 127 127
0.207107 0.510626 -0.050955 0 127 127
0.154520 0.256155 -0.262231 0 127 127
-0.069827 -0.147392 -0.337261 0 127 127
-0.182688 -0.473572 0.120850 0 127 127
-0.090059 -0.352690 0.315643 0 127 127
0.161730 -0.577709 -0.243502 0 127 127
-0.169803 0.395131 0.248963 0 127 127
0.149731 -0.334845 0.148517 0 127 127
-0.213574 0.283006 0.088785 0 127 127
0.059311 0.245906 -0.377605 0 127 127
-0.149582 0.090940 -0.190670 0 127 127
0.040345 0.611929 -0.100472 76 153 0
-0.195273 -0.799865 0.038896 0 127 127
-0.167475 -0.315250 0.122355 0 127 127
-0.121676 0.525694 -0.322310 0 127 127
0.197211 -0.679557 -0.125442 0 127 127
-0.012526 -0.823186 -0.331017 0 127 127
0.168371 0.157300 -0.018907 0 127 127
0.103158 0.640407 0.050648 76 153 0
0.051849 -0.093278 -0.337261 0 127 127
0.104001 -0.368140 0.270735 0 127 127
-0.161185 -0.449939 -0.148725 0 127 127
-0.175950 -0.125348 -0.070407 0 127 127
-0.036510 0.576774 0.313138 0 127 127
0.168317 -0.139366 -0.019946 0 127 127
-0.105605 0.526997 -0.344961 0 127 127
-0.190278 -0.704452 -0.196420 0 127 127
-0.136228 -0.857287 0.043913 0 127 127
-0.168597 0.145293 0.115196 0 127 127
0.042328 -0.857287 0.073183 0 127 127
-0.007444 -0.857287 0.068480 0 127 127
-0.136739 0.487807 0.317167 0 127 127
-0.108641 0.946054 -0.106635 153 0 76
-0.102454 0.577932 -0.246158 0 127 127
-0.101388 -0.221432 -0.299783 0 127 127
0.162117 -0.048630 -0.088806 0 127 127
0.119892 0.952655 0.076412 153 0 76
-0.149433 0.106474 0.188948 0 127 127
0.001866 0.340415 -0.377605 0 127 127
-0.043475 0.595111 -0.100759 76 153 0
-0.088556 -0.340754 -0.320103 0 127 127
0.200107 0.260364 0.104853 0 127 127
-0.104114 0.698993 0.067737 76 153 0
-0.183796 -0.516257 -0.214218 0 127 127
0.063297 -0.857287 0.010220 0 127 127
-0.144853 -0.353332 0.201011 0 127 127
0.095731 0.850599 0.106091 153 0 76
0.057353 0.599027 -0.227186 0 127 127
-0.120416 -0.554120 0.343043 0 127 127
-0.125785 0.628162 0.005995 76 153 0
-0.137318 0.340387 0.316019 0 127 127
0.168185 -0.334537 -0.022486 0 127 127
0.130805 0.779507 -0.056054 153 0 76
0.103371 0.655081 -0.051644 76 153 0
-0.220485 0.381029 0.002020 0 127 127
-0.177297 0.357280 -0.231337 0 127 127
0.097903 -0.477294 0.318920 0 127 127
-0.003408 0.247579 -0.377605 0 127 127
-0.018733 0.716187 -0.007151 153 0 76
0.166262 -0.026160 -0.059562 0 127 127
-0.153584 0.815612 0.002115 153 0 76
0.010773 0.174934 -0.337261 0 127 127
-0.155935 -0.840689 -0.011310 0 127 127
0.095603 -0.585257 0.364665 0 127 127
-0.213908 0.495971 0.086657 0 127 127
0.123160 -0.290308 -0.231427 0 127 127
-0.204565 0.401010 0.140417 0 127 127
-0.156034 0.030564 0.166039 0 127 127
0.133929 -0.385221 0.200946 0 127 127
0.209333 -0.660401 -0.008054 0 127 127
0.205237 0.380223 -0.074246 0 127 127
0.122717 0.590405 0.107907 0 127 127
-0.144800 0.783554 0.046993 153 0 76
-0.186355 0.222613 -0.144356 0 127 127
-0.039694 -0.604788 0.375490 0 127 127
-0.110628 0.596650 -0.155460 0 127 127
0.158551 -0.347657 0.109438 0 127 127
-0.033059 -0.704986 0.375490 0 127 127
0.163216 -0.401058 -0.081795 0 127 127
0.018831 -0.470907 0.347944 0 127 127
0.108841 -0.654941 0.344020 0 127 127
-0.044331 0.565521 -0.326506 0 127 127
0.053336 0.716187 -0.083375 153 0 76
0.156989 -0.256342 -0.121515 0 127 127
0.200836 0.367329 -0.102315 0 127 127
-0.091483 -0.843416 0.258475 0 127 127
0.075705 0.224477 0.359753 0 127 127
0.107512 -0.821046 -0.256755 0 127 127
-0.039662 0.938640 0.142947 153 0 76
-0.069050 0.972349 0.131814 153 0 76
0.171624 0.277681 0.215325 0 127 127
0.173427 -0.462467 0.044176 0 127 127
0.109534 -0.365714 -0.261862 0 127 127
0.208278 0.333920 0.026272 0 127 127
-0.204163 0.416642 -0.144052 0 127 127
-0.050621 -0.549065 -0.377605 0 127 127
0.141505 0.983293 0.006285 153 0 76
0.060906 0.611707 -0.036787 0 127 127
0.206543 -0.518830 -0.061827 0 127 127
-0.062445 -0.857287 0.171630 0 127 127
0.079342 -0.857287 -0.057462 0 127 127
0.017758 0.736198 0.033517 76 153 0
-0.146801 -0.315243 -0.197997 0 127 127
-0.195944 0.352305 0.172935 0 127 127
-0.219804 0.262877 0.015148 0 127 127
-0.070852 -0.857287 0.235875 0 127 127
-0.033583 0.956463 -0.145363 153 0 76
0.013885 0.595111 -0.014740 76 153 0
-0.057545 -0.815690 -0.338513 0 127 127
0.162532 0.433339 -0.241390 0 127 127
-0.123811 -0.473864 0.286524 0 127 127
0.182391 0.214680 -0.070924 0 127 127
0.190714 -0.754668 -0.153479 0 127 127
-0.152051 -0.524112 0.286761 0 127 127
0.166314 -0.625055 -0.231428 0 127 127
-0.134807 -0.086389 -0.229590 0 127 127
-0.127777 0.058653 0.245264 0 127 127
-0.124076 0.827165 0.085838 153 0 76
0.067691 0.571634 -0.304318 0 127 127
-0.076254 0.559515 0.328377 0 127 127
-0.004934 0.595111 -0.188142 0 127 127
-0.137620 -0.376288 -0.222178 0 127 127
-0.208172 -0.745109 -0.125363 0 127 127
0.140053 -0.824352 -0.158223 0 127 127
-0.088461 -0.857287 0.209360 0 127 127
0.198713 -0.498251 0.068298 0 127 127
-0.089660 -0.267705 -0.318381 0 127 127
0.011067 -0.181084 -0.337261 0 127 127
-0.091706 -0.857287 0.151451 0 127 127
-0.137616 -0.014800 0.220075 0 127 127
-0.079953 0.702416 -0.101552 76 153 0
0.177458 0.303240 -0.202073 0 127 127
-0.192551 -0.797140 0.090253 0 127 127
0.142817 -0.843380 -0.000911 0 127 127
-0.111274 0.444441 0.357301 0 127 127
0.040791 0.191667 0.141686 0 127 127
-0.162910 -0.456547 0.148017 0 127 127
0.059308 0.610504 0.066869 0 127 127
0.181961 -0.601363 -0.186495 0 127 127
-0.174232 -0.123365 0.079251 0 127 127
0.149237 -0.326506 -0.152495 0 127 127
-0.190257 -0.563321 -0.196501 0 127 127
0.000577 -0.229243 -0.337261 0 127 127
-0.032426 0.611119 -0.142695 0 127 127
-0.200264 -0.505898 0.151554 0 127 127
-0.173715 0.380401 -0.240773 0 127 127
-0.217422 -0.699330 0.061063 0 127 127
-0.135758 -0.131642 -0.227083 0 127 127
-0.177304 -0.068819 -0.057770 0 127 127
-0.114886 -0.246680 -0.272976 0 127 127
0.022487 0.421884 0.375490 0 127 127
-0.025787 -0.853634 -0.300569 0 127 127
0.086060 0.577328 -0.258316 0 127 127
-0.160290 -0.134884 -0.152101 0 127 127
0.078415 0.657068 0.085499 76 153 0
0.161125 -0.127832 -0.095131 0 127 127
0.128979 -0.234047 0.213985 0 127 127
0.092121 0.269030 0.370096 0 127 127
0.202763 -0.620042 0.087910 0 127 127
0.127854 -0.559355 -0.315184 0 127 127
0.133125 -0.413646 0.203064 0 127 127
-0.219258 -0.714524 -0.027777 0 127 127
-0.170061 0.297275 0.248283 0 127 127
0.101369 0.992035 0.081480 153 0 76
0.097157 0.420657 0.362243 0 127 127
0.143630 -0.408800 -0.173645 0 127 127
0.168884 -0.029224 -0.009024 0 127 127
0.111956 -0.857287 -0.075053 0 127 127
0.143722 0.556464 0.164557 0 127 127
-0.146835 -0.021576 -0.197905 0 127 127
-0.150773 0.957029 -0.023565 153 0 76
-0.220337 -0.735532 -0.006981 0 127 127
0.103050 0.595111 -0.078957 0 127 127
-0.153083 0.237671 0.271724 0 127 127
0.121498 0.440916 -0.326396 0 127 127
0.153751 0.191667 0.123741 0 127 127
-0.158594 -0.406923 -0.158498 0 127 127
0.181015 -0.610029 0.187949 0 127 127
-0.089029 -0.570969 0.375490 0 127 127
0.203473 0.416242 0.083380 0 127 127
0.031755 0.125236 -0.337261 0 127 127
0.119080 0.191667 0.238678 0 127 127
0.049625 -0.857287 0.115966 0 127 127
0.033886 -0.317504 -0.337261 0 127 127
-0.172134 -0.031556 -0.094747 0 127 127
-0.149835 0.938527 0.026689 153 0 76
-0.109723 0.863162 0.103770 153 0 76
-0.053767 0.600077 0.238734 0 127 127
-0.078047 0.421998 0.375490 0 127 127
0.133343 0.172880 0.202489 0 127 127
-0.047768 0.615165 -0.030445 0 127 127
0.070004 0.716187 -0.101895 153 0 76
-0.110727 -0.857287 -0.031770 0 127 127
-0.019487 0.486277 0.375490 0 127 127
-0.113035 0.491522 -0.356670 0 127 127
-0.020157 0.716187 0.093649 153 0 76
0.169256 0.059128 -0.000259 0 127 127
-0.107222 -0.430652 -0.288196 0 127 127
0.166872 -0.201591 0.045678 0 127 127
-0.031576 0.904774 -0.145669 153 0 76
-0.127215 -0.675205 -0.334554 0 127 127
-0.018304 0.326515 -0.377605 0 127 127
-0.205012 -0.664159 0.138734 0 127 127
-0.035677 -0.350842 -0.337261 0 127 127
-0.115910 0.175203 0.268830 0 127 127
0.067666 -0.568049 -0.377605 0 127 127
0.021987 0.191667 -0.320716 0 127 127
0.201882 -0.686477 0.093531 0 127 127
-0.045889 0.191667 0.011051 0 127 127
0.093368 -0.247351 0.291850 0 127 127
-0.003381 0.695853 0.135498 76 153 0
0.030761 0.024261 -0.337261 0 127 127
-0.109497 0.025871 -0.283679 0 127 127
0.045870 -0.857287 -0.158894 0 127 127
0.188215 -0.654155 -0.162905 0 127 127
-0.157195 -0.805149 -0.203844 0 127 127
-0.217541 0.338865 0.058768 0 127 127
0.029945 0.985149 0.013667 153 0 76
0.099770 0.320726 -0.360283 0 127 127
-0.203378 0.237776 -0.118731 0 127 127
0.208659 0.301476 -0.021044 0 127 127
-0.215589 0.440054 -0.078049 0 127 127
0.031664 -0.723612 -0.377605 0 127 127
-0.165411 -0.399176 -0.132787 0 127 127
-0.017588 -0.112498 0.335146 0 127 127
0.139802 0.520059 -0.278925 0 127 127
-0.009796 0.834907 0.146257 153 0 76
0.095418 0.191667 0.173411 0 127 127
-0.096950 -0.173309 -0.307011 0 127 127
-0.125128 0.710000 -0.010796 153 0 76
0.109924 -0.216610 0.258974 0 127 127
-0.030728 -0.834960 -0.319243 0 127 127
-0.125420 0.005716 0.249943 0 127 127
-0.210587 0.425419 -0.109955 0 127 127
-0.175067 0.520715 0.217367 0 127 127
-0.114825 -0.145292 -0.273098 0 127 127
0.124206 0.365648 0.320056 0 127 127
-0.147966 -0.494346 0.272713 0 127 127
-0.206014 -0.540563 -0.137070 0 127 127
-0.152555 0.191667 0.118904 0 127 127
0.206883 0.249213 -0.055281 0 127 127
0.119656 0.720752 0.076733 153 0 76
-0.041321 0.191667 0.242150 0 127 127
-0.180291 -0.636974 0.221337 0 127 127
-0.093011 -0.760283 -0.377605 0 127 127
0.170308 -0.577853 0.218791 0 127 127
0.150177 0.202439 -0.180476 0 127 127
-0.008846 0.615165 0.013535 0 127 127
-0.111533 -0.808777 0.295676 0 127 127
0.126488 -0.339563 -0.222661 0 127 127
0.065600 0.611032 0.015272 0 127 127
-0.179781 -0.806882 0.108811 0 127 127
-0.148301 0.488541 -0.296322 0 127 127
0.148968 0.256234 0.271141 0 127 127
-0.048535 0.300269 0.375490 0 127 127
-0.124525 0.530091 0.306585 0 127 127
-0.096373 0.445816 -0.377605 0 127 127
-0.115477 0.191667 -0.051517 0 127 127
-0.126213 0.989178 -0.081919 153 0 76
0.165417 -0.735503 -0.233791 0 127 127
-0.043332 0.643722 0.112981 76 153 0
-0.159664 -0.368635 0.152347 0 127 127
-0.034475 0.703510 -0.118019 76 153 0
0.115723 0.985149 -0.023570 153 0 76
-0.121105 0.736198 0.028238 76 153 0
0.031365 0.716187 0.088196 153 0 76
-0.036430 0.271112 -0.377605 0 127 127
0.015631 0.506264 0.375490 0 127 127
0.111379 -0.857287 0.000683 0 127 127
0.146346 -0.383326 -0.163401 0 127 127
0.118204 0.695853 0.051009 76 153 0
0.039308 -0.382553 -0.337261 0 127 127
0.078123 0.726899 -0.121918 153 0 76
0.153192 0.304631 0.262753 0 127 127
-0.018604 0.615165 -0.075385 0 127 127
0.005520 -0.857287 0.089800 0 127 127
-0.080585 0.200020 -0.343526 0 127 127
0.013918 -0.530550 -0.377605 0 127 127
0.127805 -0.855906 -0.048783 0 127 127
0.209447 0.256535 -0.005848 0 127 127
0.084262 0.605639 0.045503 76 153 0
-0.021784 0.554830 0.335082 0 127 127
0.062598 -0.647822 -0.377605 0 127 127
-0.051169 0.393023 0.375490 0 127 127
0.203467 0.244532 0.078931 0 127 127
0.005866 0.536622 0.353290 0 127 127
0.208306 -0.721916 0.025732 0 127 127
-0.202721 0.265184 -0.149488 0 127 127
-0.203026 -0.709358 0.146224 0 127 127
0.082100 0.736198 0.015333 76 153 0
-0.164376 0.223705 -0.219401 0 127 127
-0.217610 -0.572753 -0.059543 0 127 127
0.161054 0.560151 0.053889 0 127 127
-0.086698 0.191667 -0.048189 0 127 127
-0.024565 0.409227 0.375490 0 127 127
-0.075322 0.178948 0.335146 0 127 127
-0.177530 -0.556440 0.228608 0 127 127
-0.147989 0.366249 -0.296942 0 127 127
-0.108132 0.716187 -0.076961 153 0 76
0.130757 0.052745 0.209300 0 127 127
-0.205411 -0.638494 0.137229 0 127 127
-0.030053 -0.857287 0.114750 0 127 127
0.131155 -0.196199 -0.210368 0 127 127
-0.081646 0.605516 0.108810 0 127 127
0.038745 0.076527 -0.337261 0 127 127
-0.195062 0.506869 0.176261 0 127 127
-0.096466 0.716187 0.016250 153 0 76
0.161371 0.149688 0.091451 0 127 127
-0.088537 0.726994 -0.122727 153 0 76
0.132126 0.858030 -0.053042 153 0 76
-0.011778 0.042311 0.335146 0 127 127
-0.154898 -0.814285 0.180694 0 127 127
0.163007 0.462898 0.238023 0 127 127
-0.213213 -0.651040 0.091092 0 127 127
-0.000964 0.668273 -0.121290 76 153 0
0.137633 -0.145857 -0.193306 0 127 127
-0.124181 0.598539 0.041899 0 127 127
0.018857 0.615165 0.016227 0 127 127
-0.089819 0.339119 -0.377605 0 127 127
-0.136828 -0.781143 -0.309000 0 127 127
-0.178738 -0.599512 0.225426 0 127 127
0.008220 -0.264384 0.335146 0 127 127
0.153018 -0.503763 0.256151 0 127 127
-0.028774 0.107485 -0.337261 0 127 127
-0.056690 0.191667 -0.114549 0 127 127
0.076698 0.985149 -0.032681 153 0 76
-0.081983 0.609209 0.035839 0 127 127
0.037010 0.968959 -0.142163 153 0 76
-0.122290 -0.413577 -0.258275 0 127 127
0.014528 0.753134 0.144485 153 0 76
-0.155997 -0.058452 -0.168293 0 127 127
-0.186184 0.481201 -0.207928 0 127 127
0.072355 0.552127 0.331069 0 127 127
0.156395 0.345218 -0.257555 0 127 127
-0.024414 0.017894 0.335146 0 127 127
-0.092399 0.985149 0.084424 153 0 76
0.147458 -0.130250 0.157091 0 127 127
-0.145231 -0.721775 0.300303 0 127 127
-0.116927 0.849234 -0.097450 153 0 76
-0.115501 -0.102558 -0.271755 0 127 127
-0.063721 -0.556075 0.375490 0 127 127
0.057416 -0.857287 0.146464 0 127 127
-0.173506 0.447855 0.239209 0 127 127
0.083477 -0.026400 -0.310949 0 127 127
-0.091704 -0.078874 -0.315194 0 127 127
-0.068632 0.146785 0.335146 0 127 127
0.156601 0.550656 -0.140758 0 127 127
0.153113 -0.219626 -0.137874 0 127 127
0.179573 0.219981 0.112452 0 127 127
0.052403 0.823023 0.133959 153 0 76
-0.177982 -0.201936 0.042586 0 127 127
0.167641 -0.208933 -0.032987 0 127 127
-0.049516 0.824433 -0.142141 153 0 76
-0.064667 0.606070 0.144812 0 127 127
0.120357 0.317779 0.326060 0 127 127
0.161273 -0.490191 0.205728 0 127 127
0.112078 0.224833 -0.312118 0 127 127
-0.157389 0.191667 0.059222 0 127 127
-0.101135 0.587132 0.224978 0 127 127
-0.037933 0.702416 0.122589 76 153 0
0.116094 -0.064871 -0.248837 0 127 127
-0.197629 -0.736992 0.166578 0 127 127
0.208130 0.437383 0.029115 0 127 127
-0.185392 0.309498 0.207900 0 127 127
-0.106453 0.600448 -0.105752 0 127 127
-0.183343 -0.812907 0.017129 0 127 127
-0.030541 0.992035 -0.077638 153 0 76
0.183770 -0.487318 -0.112788 0 127 127
0.023680 -0.384327 0.335146 0 127 127
-0.002511 0.595111 0.032188 76 153 0
-0.163610 -0.195721 0.137463 0 127 127
-0.079336 0.598431 0.210556 0 127 127
0.188908 -0.532291 0.158178 0 127 127
-0.184294 0.547604 -0.061281 0 127 127
0.011626 0.900099 -0.146956 153 0 76
-0.029058 0.985149 0.011330 153 0 76
0.157046 -0.163242 0.119040 0 127 127
-0.211501 0.476349 -0.104125 0 127 127
-0.170989 -0.262957 0.099939 0 127 127
-0.179909 -0.307314 -0.007546 0 127 127
-0.073631 0.992035 -0.076646 153 0 76
0.138826 0.880285 0.030455 153 0 76
-0.080389 -0.278096 0.330725 0 127 127
-0.158427 -0.792881 0.233049 0 127 127
0.178924 -0.792790 -0.134765 0 127 127
0.027065 -0.035286 0.335146 0 127 127
-0.014414 0.191667 -0.220879 0 127 127
-0.025901 0.736198 -0.049408 76 153 0
0.149369 0.196251 0.163296 0 127 127
-0.208750 0.283656 -0.121673 0 127 127
-0.085239 0.716187 -0.030095 153 0 76
-0.163627 0.086795 -0.139514 0 127 127
-0.158290 0.191667 0.007784 0 127 127
-0.097895 0.651769 0.075506 76 153 0
-0.009037 -0.618999 -0.377605 0 127 127
-0.076317 0.608841 -0.074779 0 127 127
-0.091849 0.191667 -0.186673 0 127 127
0.168576 0.264196 -0.225470 0 127 127
-0.159050 -0.096614 0.154663 0 127 127
0.130702 0.958403 0.054052 153 0 76
0.121738 0.419506 0.323906 0 127 127
0.007072 -0.857287 -0.163248 0 127 127
0.196671 0.503377 0.126769 0 127 127
-0.166572 -0.200793 -0.128409 0 127 127
0.166356 -0.137343 -0.057757 0 127 127
-0.080173 0.716187 0.103150 76 153 0
0.166605 0.091891 0.050829 0 127 127
0.206497 -0.585744 0.060599 0 127 127
0.021519 0.611644 0.134472 0 127 127
0.124320 0.595111 -0.036943 0 127 127
0.008013 0.985149 0.056658 153 0 76
0.023945 -0.857287 0.192344 0 127 127
0.105810 0.735755 0.043854 76 153 0
0.038282 -0.848726 0.303362 0 127 127
-0.149031 -0.161730 -0.192122 0 127 127
-0.078542 0.175928 -0.335720 0 127 127
0.093108 0.592087 0.203319 0 127 127
-0.147804 0.310112 0.295194 0 127 127
0.160093 0.394692 0.245700 0 127 127
0.149857 0.488695 0.269375 0 127 127
0.173726 0.427618 -0.211905 0 127 127
-0.037362 -0.441562 -0.337261 0 127 127
-0.043145 0.191667 -0.279897 0 127 127
0.086352 -0.625876 0.375490 0 127 127
0.120267 -0.214682 0.236932 0 127 127
-0.193819 0.243818 -0.178263 0 127 127
-0.122727 -0.029931 -0.257407 0 127 127
-0.172076 -0.723051 -0.245090 0 127 127
0.153340 -0.353717 0.134905 0 127 127
0.168568 -0.000573 -0.015104 0 127 127
-0.177421 -0.327120 -0.055507 0 127 127
0.064721 0.409827 0.375490 0 127 127
-0.147912 -0.158196 0.192955 0 127 127
0.121886 0.771253 0.073700 153 0 76
-0.011716 0.595111 -0.142241 0 127 127
-0.158135 -0.334045 -0.160229 0 127 127
0.181254 -0.563256 -0.189162 0 127 127
-0.040936 0.191667 -0.035681 0 127 127
0.072129 0.130656 -0.328646 0 127 127
0.107383 0.153269 0.264020 0 127 127
-0.072465 0.349123 0.375490 0 127 127
-0.017397 0.595111 0.080551 0 127 127
-0.057692 0.851611 0.136248 153 0 76
0.112987 -0.456047 -0.258682 0 127 127
0.205966 0.321054 0.067474 0 127 127
-0.134624 0.206798 -0.259012 0 127 127
0.131984 0.931111 -0.053366 153 0 76
0.065992 0.191667 -0.300250 0 127 127
0.172576 -0.787089 0.178839 0 127 127
-0.180064 -0.222224 0.002448 0 127 127
-0.128321 0.992035 -0.033984 153 0 76
-0.017152 0.630487 -0.120662 76 153 0
0.125765 -0.654073 0.317217 0 127 127
0.059033 0.194165 -0.339134 0 127 127
0.207843 0.469867 -0.036772 0 127 127
-0.179273 0.010120 0.017687 0 127 127
0.177586 0.279685 -0.201737 0 127 127
-0.123495 0.191667 0.209533 0 127 127
0.138224 0.071371 0.189632 0 127 127
0.014072 0.595111 0.052549 76 153 0
0.132930 0.191667 -0.104437 0 127 127
0.151187 -0.634022 0.266733 0 127 127
0.207550 -0.670796 0.040307 0 127 127
0.168808 -0.782570 0.205917 0 127 127
0.094999 -0.558281 -0.367723 0 127 127
0.106247 -0.796207 0.311737 0 127 127
0.142005 -0.009969 0.177657 0 127 127
0.207983 -0.764872 0.031950 0 127 127
0.175814 -0.488137 0.150503 0 127 127
-0.000046 0.595111 -0.109649 0 127 127
0.072065 0.459102 0.375490 0 127 127
0.070921 -0.202950 0.328416 0 127 127
0.094087 -0.330813 -0.292539 0 127 127
-0.022852 0.985149 0.125303 153 0 76
-0.215577 -0.774005 0.076009 0 127 127
0.022763 -0.668527 0.375490 0 127 127
-0.155793 -0.127289 0.166947 0 127 127
0.108695 -0.082623 0.261415 0 127 127
0.087860 0.183158 0.301998 0 127 127
-0.085104 0.191667 -0.002196 0 127 127
0.069950 -0.789488 -0.364715 0 127 127
-0.082952 0.967267 -0.127198 153 0 76
0.159879 -0.366539 -0.103083 0 127 127
0.208030 0.292796 0.031057 0 127 127
-0.070458 -0.850520 0.284006 0 127 127
0.090693 -0.660510 -0.374438 0 127 127
-0.106672 0.695853 0.099458 76 153 0
0.160470 -0.444016 0.097199 0 127 127
0.137632 -0.608461 0.293652 0 127 127
-0.022928 0.191667 -0.243265 0 127 127
-0.180145 0.101122 -0.003006 0 127 127
-0.213955 -0.656468 -0.088473 0 127 127
0.008304 0.801607 -0.147324 153 0 76
-0.149996 0.784000 -0.030576 153 0 76
-0.172905 -0.172313 -0.089830 0 127 127
-0.145906 0.008910 0.198237 0 127 127
-0.177456 -0.249779 0.052725 0 127 127
0.161593 -0.495105 -0.217384 0 127 127
0.085419 -0.841211 -0.255792 0 127 127
0.138777 0.805483 0.030897 153 0 76
0.071775 0.191667 -0.010625 0 127 127
0.072432 0.004896 -0.328175 0 127 127
-0.219582 -0.506739 0.006428 0 127 127
-0.082043 -0.857287 0.019024 0 127 127
-0.150741 -0.253201 -0.187618 0 127 127
0.096393 -0.442728 0.285845 0 127 127
-0.153078 0.051673 -0.179302 0 127 127
-0.166028 0.172622 0.128343 0 127 127
0.207814 -0.606517 -0.037332 0 127 127
0.156836 0.079418 0.120379 0 127 127
-0.134659 -0.717115 -0.322945 0 127 127
0.032476 0.906802 0.141746 153 0 76
0.020276 0.231694 0.365166 0 127 127
-0.055806 0.736198 -0.081610 76 153 0
-0.118193 -0.764625 -0.348626 0 127 127
0.107721 -0.700125 -0.347881 0 127 127
-0.000560 -0.407176 -0.337261 0 127 127
0.090034 0.716187 0.029170 153 0 76
-0.009775 0.191667 0.044786 0 127 127
0.139012 0.820573 -0.027977 153 0 76
0.156479 -0.398141 0.122652 0 127 127
-0.194607 0.215165 0.062280 0 127 127
0.032271 0.214266 -0.354210 0 127 127
-0.047968 -0.857287 0.261388 0 127 127
0.015671 0.992035 -0.097410 153 0 76
-0.052949 0.903715 0.138100 153 0 76
-0.025051 0.230724 -0.366553 0 127 127
-0.146414 0.576253 -0.120078 0 127 127
-0.193734 0.224103 0.111928 0 127 127
0.080056 0.595111 -0.074899 76 153 0
0.010315 0.736198 0.061990 76 153 0
0.118466 0.214318 0.279782 0 127 127
0.186566 -0.769822 0.167010 0 127 127
0.169818 0.494914 0.220084 0 127 127
0.028622 0.608516 -0.163122 0 127 127
-0.179916 0.497964 0.222323 0 127 127
0.146403 0.227733 -0.246416 0 127 127
0.004330 -0.097017 -0.337261 0 127 127
0.024062 0.441709 -0.377605 0 127 127
0.161906 0.126761 0.088036 0 127 127
-0.136582 -0.054362 -0.224914 0 127 127
0.068518 0.992035 -0.005683 153 0 76
0.046932 0.573121 0.316791 0 127 127
0.056736 0.595111 -0.076067 76 153 0
0.208540 -0.641979 0.021209 0 127 127
0.082284 0.602902 0.111215 0 127 127
0.063022 0.603888 -0.154502 0 127 127
0.148404 0.186159 -0.155638 0 127 127
0.061373 0.606622 -0.120940 0 127 127
0.182683 0.302913 0.181657 0 127 127
-0.095834 0.992035 0.040130 153 0 76
-0.072616 0.191667 0.102012 0 127 127
-0.108624 -0.354399 0.283297 0 127 127
0.098744 0.191667 0.275804 0 127 127
-0.132014 0.980783 0.075920 153 0 76
0.002029 0.943426 0.146391 153 0 76
-0.177604 -0.097745 -0.051985 0 127 127
0.085838 -0.857287 0.061308 0 127 127
0.162393 0.005176 -0.087048 0 127 127
0.072443 0.395900 -0.377605 0 127 127
0.159211 -0.446364 -0.107342 0 127 127
0.148501 0.038905 -0.155272 0 127 127
0.146617 -0.712277 -0.277925 0 127 127
0.076816 0.191667 -0.056286 0 127 127
-0.006268 0.615165 -0.039200 0 127 127
0.030661 0.595111 0.278235 0 127 127
-0.145084 0.443124 -0.302711 0 127 127
-0.145096 0.030989 -0.202486 0 127 127
-0.179037 -0.174600 0.022244 0 127 127
0.117143 0.578433 0.178482 0 127 127
-0.105403 -0.130291 0.289695 0 127 127
-0.069326 -0.857287 -0.229066 0 127 127
-0.170493 -0.081764 0.103099 0 127 127
0.080335 0.842095 -0.120292 153 0 76
-0.043500 -0.767394 0.375490 0 127 127
0.012420 0.716187 0.010974 153 0 76
0.001812 -0.832715 0.319373 0 127 127
-0.132783 0.248617 -0.325871 0 127 127
-0.071474 0.992035 0.015255 153 0 76
-0.003083 0.992035 0.021193 153 0 76
-0.063799 -0.532466 0.375490 0 127 127
0.108924 0.041941 -0.263075 0 127 127
-0.003089 -0.146066 -0.337261 0 127 127
0.161474 0.097572 -0.092906 0 127 127
-0.126751 0.329224 0.333163 0 127 127
-0.194370 0.377576 0.178871 0 127 127
-0.095427 -0.159998 0.307272 0 127 127
-0.006280 0.716187 -0.040701 153 0 76
-0.022751 0.613304 0.119960 0 127 127
0.055246 0.617065 0.103345 0 127 127
0.013173 0.736198 -0.023321 76 153 0
0.036170 -0.857287 0.048875 0 127 127
0.194967 0.270688 0.135323 0 127 127
0.134874 0.131692 0.198456 0 127 127
0.127285 -0.806282 -0.250316 0 127 127
0.161457 -0.218555 -0.093013 0 127 127
-0.042245 0.357617 -0.377605 0 127 127
0.073168 0.822362 0.124150 153 0 76
0.078508 -0.088998 0.316583 0 127 127
-0.011334 -0.857287 -0.231970 0 127 127
-0.077361 0.881871 0.128413 153 0 76
0.136321 -0.749246 -0.298371 0 127 127
-0.178953 -0.702287 -0.226976 0 127 127
0.164578 -0.251206 -0.073105 0 127 127
-0.064118 0.746005 -0.135738 153 0 76
0.049066 0.595111 0.015972 0 127 127
-0.054148 0.191667 0.320628 0 127 127
0.031032 0.595111 -0.281566 0 127 127
-0.064145 0.985149 0.063602 153 0 76
-0.217284 0.482664 0.063716 0 127 127
0.000841 0.595111 -0.080117 0 127 127
0.122908 -0.839433 0.161927 0 127 127
0.084235 -0.847238 0.242627 0 127 127
0.109648 -0.258356 -0.261636 0 127 127
0.005926 0.481639 -0.377605 0 127 127
-0.098277 -0.857287 -0.071109 0 127 127
-0.118688 0.719832 0.092570 153 0 76
-0.126818 -0.301624 -0.249282 0 127 127
0.089287 0.906486 -0.113710 153 0 76
0.149254 -0.142536 -0.152431 0 127 127
-0.015909 0.595111 -0.002650 76 153 0
-0.037158 0.132557 0.335146 0 127 127
-0.082375 0.813631 0.124727 153 0 76
-0.107336 0.121999 0.285856 0 127 127
-0.103845 0.695853 -0.105374 76 153 0
-0.102845 0.191667 0.287289 0 127 127
-0.118498 0.647568 -0.041514 76 153 0
0.093734 0.639823 -0.069140 76 153 0
-0.144767 -0.835487 0.136171 0 127 127
0.023339 0.606785 0.182604 0 127 127
0.065647 -0.242885 -0.337261 0 127 127
0.139623 0.942734 -0.023977 153 0 76
-0.167542 -0.152956 0.121924 0 127 127
0.206536 -0.565477 -0.061966 0 127 127
0.000143 -0.857287 -0.006134 0 127 127
0.155431 0.191667 0.011097 0 127 127
-0.054865 0.615165 -0.008693 0 127 127
-0.129926 0.016786 -0.242446 0 127 127
0.044975 0.191667 0.256396 0 127 127
-0.219056 0.448878 0.029557 0 127 127
-0.177124 -0.389060 0.059116 0 127 127
0.146899 0.153822 0.159200 0 127 127
0.209167 -0.530433 0.009137 0 127 127
0.114249 -0.403486 -0.252500 0 127 127
-0.153348 -0.396822 -0.178284 0 127 127
-0.201737 -0.708557 -0.153198 0 127 127
-0.094435 0.595111 0.019104 0 127 127
-0.026706 0.736198 -0.105917 76 153 0
-0.068816 -0.857287 -0.027061 0 127 127
-0.011440 0.191667 -0.095911 0 127 127
-0.204439 -0.639733 -0.143011 0 127 127
0.114224 -0.763952 -0.337740 0 127 127
-0.189011 0.535767 0.107653 0 127 127
-0.083960 0.014448 0.325155 0 127 127
-0.179478 -0.417786 0.013744 0 127 127
-0.048157 0.736198 0.019262 76 153 0
0.142864 -0.205649 -0.176534 0 127 127
-0.012182 0.174708 0.335146 0 127 127
-0.123117 -0.626055 0.338831 0 127 127
0.163535 -0.125131 0.077644 0 127 127
-0.157862 -0.021258 0.159146 0 127 127
0.043701 0.570391 -0.321636 0 127 127
0.138523 0.178087 -0.190961 0 127 127
0.092033 0.046950 -0.296618 0 127 127
0.120613 0.586280 0.135371 0 127 127
0.188632 0.257124 0.159219 0 127 127
0.042553 -0.640629 0.375490 0 127 127
-0.174102 -0.075288 -0.082195 0 127 127
-0.122844 -0.576371 -0.341372 0 127 127
-0.103152 0.162591 -0.296278 0 127 127
0.208905 0.378944 0.014183 0 127 127
0.024856 0.736198 -0.045847 76 153 0
0.187722 0.516672 0.153868 0 127 127
-0.085567 -0.852868 -0.251323 0 127 127
0.107762 0.551341 -0.273000 0 127 127
0.056960 -0.501767 0.371089 0 127 127
-0.152193 0.766671 0.011231 153 0 76
-0.202450 -0.590471 -0.150511 0 127 127
-0.198630 0.462160 0.162804 0 127 127
0.113285 -0.672829 -0.339204 0 127 127
-0.164081 0.296266 -0.264986 0 127 127
0.184789 -0.681210 -0.175827 0 127 127
-0.139031 0.032735 0.216346 0 127 127
-0.220140 -0.595136 -0.010786 0 127 127
-0.082298 -0.324094 0.327748 0 127 127
0.195068 -0.564466 0.134942 0 127 127
0.019360 0.611967 -0.134927 0 127 127
-0.122380 0.057809 -0.258096 0 127 127
0.052448 0.863680 0.133940 153 0 76
-0.010282 0.191667 0.165084 0 127 127
0.009291 -0.705571 -0.377605 0 127 127
0.192862 0.224407 -0.020777 0 127 127
-0.120051 0.086009 0.260605 0 127 127
-0.079558 0.595111 -0.116695 0 127 127
0.127616 -0.459259 0.229019 0 127 127
0.148708 -0.275751 -0.154490 0 127 127
-0.126398 -0.349651 0.248001 0 127 127
0.104286 0.676840 0.047758 76 153 0
-0.066591 0.595111 -0.027614 0 127 127
0.133021 0.716187 0.011222 153 0 76
0.162251 -0.093542 -0.087952 0 127 127
-0.177177 -0.145572 -0.060209 0 127 127
-0.023777 -0.668042 -0.377605 0 127 127
-0.219057 -0.519664 -0.031657 0 127 127
-0.172470 -0.187235 0.090493 0 127 127
-0.124118 0.688661 -0.019907 76 153 0
0.016058 0.191667 0.309947 0 127 127
-0.007422 0.736198 -0.068961 76 153 0
0.072757 -0.857287 -0.012757 0 127 127
-0.083458 -0.487864 -0.362777 0 127 127
0.081698 0.969389 0.117323 153 0 76
0.175600 -0.690853 0.204852 0 127 127
-0.033969 -0.594040 -0.377605 0 127 127
-0.191622 -0.607596 -0.191353 0 127 127
-0.174700 -0.314940 -0.078379 0 127 127
-0.083502 -0.657486 0.375490 0 127 127
0.139221 0.774518 -0.026611 153 0 76
-0.026336 0.716187 -0.136183 153 0 76
0.067051 0.153561 0.334450 0 127 127
-0.169686 0.555122 -0.108072 0 127 127
0.160383 0.516331 0.239556 0 127 127
-0.015922 -0.428303 0.335146 0 127 127
0.056700 0.992035 0.075608 153 0 76
-0.119150 -0.068889 -0.264511 0 127 127
0.134033 -0.038517 -0.202788 0 127 127
0.090877 0.103339 0.296797 0 127 127
0.067136 0.199099 0.340720 0 127 127
-0.118850 -0.073867 0.262989 0 127 127
-0.006673 -0.066723 0.335146 0 127 127
-0.140359 -0.563974 0.309978 0 127 127
0.018604 0.615165 -0.087525 0 127 127
0.026386 0.595111 0.006530 0 127 127
0.029152 0.191667 0.113853 0 127 127
-0.129787 -0.816463 -0.244163 0 127 127
-0.126732 0.767461 0.082519 153 0 76
-0.155919 0.466157 0.279079 0 127 127
-0.053736 0.656368 -0.110922 76 153 0
0.171582 0.383375 0.215436 0 127 127
0.187142 -0.796662 -0.048521 0 127 127
-0.125930 -0.841540 -0.183665 0 127 127
0.144022 -0.836479 0.075971 0 127 127
0.104350 0.476537 -0.353138 0 127 127
0.196314 -0.491977 0.030193 0 127 127
-0.217638 0.516863 -0.011887 0 127 127
-0.194468 0.275228 0.178501 0 127 127
0.190607 0.380809 0.151768 0 127 127
0.139018 0.736906 -0.027942 153 0 76
-0.059029 -0.471481 -0.350489 0 127 127
0.100461 0.386943 0.357089 0 127 127
-0.123041 0.716187 0.062863 153 0 76
0.154411 -0.819419 -0.121972 0 127 127
-0.161555 -0.274325 0.145217 0 127 127
0.073718 0.702416 0.096264 76 153 0
0.131664 -0.700420 -0.307619 0 127 127
0.045620 0.538370 0.351542 0 127 127
-0.036077 -0.038913 0.335146 0 127 127
0.144378 -0.109458 -0.170824 0 127 127
-0.069388 0.599165 -0.223325 0 127 127
0.154180 -0.459399 -0.150111 0 127 127
-0.042581 0.736198 0.068865 76 153 0
-0.148003 0.179798 -0.194830 0 127 127
0.019341 0.716187 -0.094914 153 0 76
-0.157135 -0.433928 -0.164003 0 127 127
0.094727 0.148498 0.289152 0 127 127
0.198466 -0.746253 -0.117432 0 127 127
0.056680 -0.448786 0.335146 0 127 127
0.021444 0.010026 0.335146 0 127 127
-0.178817 0.397692 -0.227333 0 127 127
0.114123 -0.112122 -0.252750 0 127 127
0.148807 -0.091096 -0.154117 0 127 127
0.076558 0.054348 -0.321739 0 127 127
0.123020 -0.849976 -0.122480 0 127 127
0.163870 0.048828 0.075508 0 127 127
0.203240 -0.506803 -0.082947 0 127 127
-0.184874 0.416304 0.209263 0 127 127
-0.103150 -0.857287 -0.139302 0 127 127
-0.144346 0.326076 -0.304176 0 127 127
-0.215026 -0.728911 -0.081640 0 127 127
0.136784 -0.196996 0.193425 0 127 127
0.200627 -0.532856 -0.103647 0 127 127
0.113796 0.521675 -0.324971 0 127 127
-0.068951 0.217014 0.354156 0 127 127
-0.145534 0.395155 0.299702 0 127 127
0.065388 0.191667 0.045270 0 127 127
0.148158 -0.065150 -0.156565 0 127 127
-0.120432 -0.648351 -0.345134 0 127 127
0.003178 0.716187 0.096599 153 0 76
-0.197172 0.508909 -0.170419 0 127 127
0.035666 0.191667 0.231776 0 127 127
0.139265 -0.120043 0.186890 0 127 127
0.120539 -0.269135 -0.238331 0 127 127
0.139571 -0.844546 0.039133 0 127 127
-0.139864 -0.482765 -0.271606 0 127 127
-0.179289 -0.357982 0.017377 0 127 127
-0.213871 -0.557775 0.086891 0 127 127
0.162314 0.297710 -0.241965 0 127 127
0.067280 0.191667 -0.196794 0 127 127
0.096675 -0.714757 0.362994 0 127 127
-0.066459 -0.645754 -0.377605 0 127 127
0.066077 0.019657 0.335146 0 127 127
-0.158477 -0.411285 0.156827 0 127 127
-0.199387 0.341061 -0.162065 0 127 127
-0.195364 0.290004 -0.177238 0 127 127
0.038076 0.595111 0.142847 0 127 127
0.166237 -0.173229 -0.060033 0 127 127
-0.133282 -0.693311 0.322978 0 127 127
-0.037275 0.191667 0.125650 0 127 127
-0.038212 0.595111 0.125201 0 127 127
-0.210291 -0.730777 0.109733 0 127 127
0.165912 0.063590 -0.064599 0 127 127
-0.033083 0.992035 0.089648 153 0 76
-0.109341 0.014004 0.281874 0 127 127
-0.008639 -0.307988 0.335146 0 127 127
-0.136320 0.292594 0.317999 0 127 127
-0.013915 0.736198 0.026460 76 153 0
0.047546 0.832634 -0.138050 153 0 76
0.128129 -0.808963 0.238706 0 127 127
0.201635 -0.569623 0.095107 0 127 127
0.014332 -0.668183 -0.377605 0 127 127
-0.139823 0.233031 -0.292434 0 127 127
-0.179141 -0.264394 -0.022359 0 127 127
-0.059993 0.736198 0.103647 76 153 0
-0.018904 -0.857287 0.244282 0 127 127
0.044957 -0.634080 -0.377605 0 127 127
0.088254 0.191667 -0.095957 0 127 127
-0.165077 0.128835 0.131929 0 127 127
0.099018 0.499127 0.359339 0 127 127
0.022800 0.588837 -0.303190 0 127 127
0.082024 0.191667 0.021297 0 127 127
0.060923 -0.857287 0.181404 0 127 127
-0.074392 -0.067755 -0.337261 0 127 127
0.167152 -0.377515 0.040289 0 127 127
-0.113404 -0.667896 0.353979 0 127 127
0.181606 0.348920 0.185719 0 127 127
0.069329 -0.384356 0.330898 0 127 127
-0.105210 0.619384 -0.067983 76 153 0
-0.112093 0.212218 -0.311952 0 127 127
-0.099481 0.927081 -0.113967 153 0 76
-0.135579 -0.417388 0.225441 0 127 127
-0.114051 0.595111 -0.059711 76 153 0
0.144204 -0.807089 -0.203757 0 127 127
-0.133645 0.551526 -0.241779 0 127 127
0.029549 0.922184 -0.144969 153 0 76
0.209637 0.280055 -0.002197 0 127 127
-0.010376 0.327656 0.375490 0 127 127
-0.096905 0.736198 -0.000086 76 153 0
-0.111379 -0.706600 0.357137 0 127 127
-0.152262 0.580432 -0.045072 0 127 127
0.041017 0.595111 -0.054261 0 127 127
0.035867 -0.857287 -0.111739 0 127 127
0.009796 0.706176 0.117999 76 153 0
-0.126458 -0.843379 0.174435 0 127 127
-0.124883 0.657672 -0.013004 76 153 0
0.166691 -0.255115 -0.051297 0 127 127
0.106126 0.561631 0.251253 0 127 127
-0.052746 0.716187 -0.066360 153 0 76
-0.188541 0.545710 -0.015965 0 127 127
-0.219113 0.498462 -0.030575 0 127 127
-0.219981 0.335186 0.011723 0 127 127
-0.209627 0.352532 -0.116082 0 127 127
-0.152370 0.191667 -0.104885 0 127 127
0.101780 0.695853 0.087366 76 153 0
-0.143887 -0.789267 -0.276920 0 127 127
-0.139355 0.741207 0.059411 153 0 76
-0.044966 0.191667 -0.325256 0 127 127
-0.147928 -0.786898 0.272046 0 127 127
-0.134093 -0.265880 -0.231469 0 127 127
0.132472 -0.510991 -0.306014 0 127 127
-0.169695 -0.506459 0.246761 0 127 127
-0.176642 0.419812 -0.233064 0 127 127
0.062374 0.936096 0.129588 153 0 76
-0.172931 0.556260 -0.080020 0 127 127
-0.076660 0.594477 0.258479 0 127 127
-0.076997 -0.821633 -0.329439 0 127 127
0.050124 -0.550080 -0.377605 0 127 127
-0.063675 0.595111 -0.091563 76 153 0
0.209508 0.414834 -0.004680 0 127 127
0.057603 -0.708276 -0.377605 0 127 127
-0.140316 -0.840955 -0.133739 0 127 127
-0.061231 0.788700 0.134866 153 0 76
0.153261 0.008052 0.135204 0 127 127
-0.150588 0.404450 -0.291781 0 127 127
-0.108113 0.405571 -0.364346 0 127 127
-0.097870 -0.197669 -0.305577 0 127 127
-0.096882 -0.736471 -0.377605 0 127 127
-0.081276 0.369465 0.375490 0 127 127
-0.219179 0.405133 0.027184 0 127 127
0.114519 0.255164 0.335165 0 127 127
0.036392 -0.055384 0.335146 0 127 127
0.166676 -0.098398 -0.051581 0 127 127
0.099751 0.716187 -0.014156 153 0 76
0.169030 -0.266992 -0.006215 0 127 127
0.002247 0.595111 0.164233 0 127 127
0.173099 -0.797794 0.135095 0 127 127
-0.014016 -0.857287 0.197373 0 127 127
0.118408 0.021731 0.241831 0 127 127
0.166443 0.130252 -0.056072 0 127 127
-0.117768 -0.189546 -0.267255 0 127 127
-0.165890 0.382400 -0.261384 0 127 127
0.140808 0.331464 0.287345 0 127 127
-0.005047 0.902251 0.146783 153 0 76
0.124893 0.308384 -0.321064 0 127 127
-0.119404 0.343359 -0.346737 0 127 127
-0.177946 0.183800 0.043279 0 127 127
-0.154871 -0.213388 -0.172542 0 127 127
-0.141418 0.928257 0.054706 153 0 76
0.056676 0.333568 0.375490 0 127 127
-0.148067 0.199002 0.208044 0 127 127
0.110470 0.749373 -0.091273 153 0 76
0.195609 -0.714448 0.132902 0 127 127
-0.076739 -0.018845 0.335146 0 127 127
-0.179177 0.089270 -0.021649 0 127 127
0.145852 -0.839179 -0.023764 0 127 127
-0.053158 0.191667 0.033572 0 127 127
0.127189 -0.722340 -0.316505 0 127 127
0.169236 0.316830 -0.223730 0 127 127
-0.082095 0.191667 0.174106 0 127 127
0.023811 0.343052 -0.377605 0 127 127
0.112890 0.716187 -0.063289 153 0 76
-0.048089 0.149527 -0.337261 0 127 127
-0.219827 -0.635410 -0.016807 0 127 127
-0.211639 0.263074 0.101129 0 127 127
-0.082629 0.857935 -0.127456 153 0 76
0.077945 0.595111 -0.220210 0 127 127
-0.217445 0.422055 -0.062719 0 127 127
0.065628 0.307215 -0.377605 0 127 127
-0.064903 0.258073 0.375490 0 127 127
0.148179 -0.667062 -0.274822 0 127 127
0.009408 -0.832308 -0.321895 0 127 127
0.207024 -0.717020 0.050438 0 127 127
-0.139430 0.355044 -0.313939 0 127 127
-0.086467 0.191667 0.236656 0 127 127
-0.047812 0.716187 -0.018029 153 0 76
0.092406 0.098508 -0.295877 0 127 127
-0.051888 0.716187 0.052220 153 0 76
0.209581 -0.755740 -0.003269 0 127 127
0.135941 0.570572 0.138853 0 127 127
-0.174966 -0.271027 -0.076687 0 127 127
-0.134941 -0.109705 -0.229236 0 127 127
-0.155229 0.366573 0.280451 0 127 127
0.168291 0.199908 -0.089333 0 127 127
0.011632 -0.274859 -0.337261 0 127 127
0.106372 0.812950 0.094800 153 0 76
-0.081372 -0.393268 0.329191 0 127 127
-0.193839 -0.474797 0.040265 0 127 127
-0.204541 -0.526675 0.140510 0 127 127
-0.047974 -0.571496 0.375490 0 127 127
-0.044963 -0.857287 0.080333 0 127 127
-0.026525 0.728271 0.117342 76 153 0
0.133644 0.239191 -0.293234 0 127 127
0.001913 0.191667 0.115819 0 127 127
0.008887 -0.857287 0.238918 0 127 127
0.205321 0.292489 0.071592 0 127 127
0.137727 -0.157716 0.190943 0 127 127
0.010896 0.595111 -0.170048 0 127 127
0.044342 0.733647 0.108126 76 153 0
-0.139548 0.753321 -0.061554 153 0 76
-0.029771 0.808813 0.144043 153 0 76
0.166359 0.116799 0.055567 0 127 127
-0.005621 -0.639335 0.375490 0 127 127
-0.147940 0.219297 0.251265 0 127 127
-0.075998 0.680248 -0.098313 76 153 0
-0.034717 -0.270612 0.335146 0 127 127
0.022511 0.726163 -0.145749 153 0 76
0.070401 -0.103447 -0.331341 0 127 127
0.123179 -0.180979 0.229262 0 127 127
0.014082 0.191667 -0.300221 0 127 127
0.136097 0.306185 -0.298816 0 127 127
-0.174625 -0.297992 0.076747 0 127 127
0.174366 -0.557027 -0.210217 0 127 127
0.167727 -0.391262 -0.031314 0 127 127
-0.168879 -0.765868 -0.253510 0 127 127
0.159994 -0.318699 -0.102350 0 127 127
0.166458 -0.319763 -0.055773 0 127 127
-0.091635 -0.233509 -0.315301 0 127 127
0.026178 0.168079 0.335146 0 127 127
-0.079357 -0.488079 0.360822 0 127 127
0.021109 -0.527350 0.375490 0 127 127
0.180924 -0.636914 0.188289 0 127 127
-0.056479 0.926004 0.136722 153 0 76
0.136243 0.100244 0.194852 0 127 127
-0.063284 0.716187 0.089164 153 0 76
0.075487 -0.301149 0.321295 0 127 127
0.178558 -0.472225 0.070826 0 127 127
-0.171915 -0.105613 -0.096146 0 127 127
0.149699 -0.680790 0.269689 0 127 127
0.038825 0.604035 -0.200230 0 127 127
0.010634 0.615165 0.096609 0 127 127
0.130343 0.591497 0.040852 0 127 127
0.137632 -0.556575 -0.295767 0 127 127
0.176863 -0.633385 -0.203642 0 127 127
-0.028135 0.191667 0.085677 0 127 127
-0.111271 0.985149 0.067364 153 0 76
-0.052345 0.523622 -0.368405 0 127 127
-0.217471 0.292841 0.060107 0 127 127
-0.202581 0.444325 0.147901 0 127 127
0.118651 -0.492440 -0.308121 0 127 127
-0.057116 -0.201086 0.335146 0 127 127
-0.054707 0.026852 0.335146 0 127 127
0.157275 -0.617995 0.253122 0 127 127
0.089568 -0.525621 -0.376193 0 127 127
0.009446 0.736198 0.083860 76 153 0
0.166464 -0.811457 0.094376 0 127 127
0.088306 0.746304 -0.114431 153 0 76
-0.112261 0.736198 0.051949 76 153 0
-0.123980 -0.321439 0.252803 0 127 127
-0.153512 0.135742 -0.177665 0 127 127
0.116286 0.159643 -0.248455 0 127 127
-0.078968 -0.114344 -0.335056 0 127 127
-0.190694 0.376004 -0.194853 0 127 127
-0.166124 0.230669 0.227398 0 127 127
0.144593 0.126569 -0.170013 0 127 127
0.040771 -0.287009 0.335146 0 127 127
-0.201494 0.435851 -0.154117 0 127 127
0.025939 0.866914 0.142743 153 0 76
-0.120928 -0.319724 -0.260979 0 127 127
-0.020645 0.191667 0.283278 0 127 127
0.092265 -0.857287 -0.099144 0 127 127
0.201808 -0.730779 0.094001 0 127 127
-0.117215 0.131624 -0.268352 0 127 127
-0.145745 0.061016 0.198663 0 127 127
0.035534 -0.857287 -0.203093 0 127 127
-0.040166 -0.843542 0.308546 0 127 127
-0.136979 -0.192838 0.221751 0 127 127
-0.177245 -0.316426 0.056784 0 127 127
0.076829 0.978418 -0.122869 153 0 76
0.106153 0.191667 -0.129961 0 127 127
0.117769 0.205993 -0.269398 0 127 127
0.155051 0.117459 0.128452 0 127 127
-0.195163 -0.488757 -0.116923 0 127 127
-0.152167 -0.269382 0.180625 0 127 127
-0.116725 -0.728165 -0.350915 0 127 127
0.017742 0.992035 0.132203 153 0 76
0.159621 0.262598 0.246943 0 127 127
0.174101 -0.525618 0.208801 0 127 127
-0.174694 0.197819 -0.108212 0 127 127
-0.211360 0.235843 0.038696 0 127 127
0.206884 0.323294 -0.055246 0 127 127
-0.177230 0.021175 0.057068 0 127 127
-0.034307 0.526457 0.363455 0 127 127
0.077879 -0.305965 -0.319679 0 127 127
-0.108179 0.247673 0.362127 0 127 127
0.207583 -0.591546 0.039658 0 127 127
0.113122 0.685826 0.018211 76 153 0
-0.207624 0.459518 -0.128857 0 127 127
0.141793 0.797493 -0.009749 153 0 76
0.188426 0.476453 0.159994 0 127 127
-0.216524 0.359765 -0.072088 0 127 127
-0.209880 -0.753296 0.112354 0 127 127
0.195741 0.528068 -0.006644 0 127 127
-0.215248 0.253458 0.078107 0 127 127
0.071229 0.499139 0.375490 0 127 127
-0.175813 -0.058129 0.069169 0 127 127
-0.212625 -0.782894 0.032000 0 127 127
0.016590 -0.798643 0.353445 0 127 127
-0.158115 -0.103837 -0.160305 0 127 127
0.103952 -0.777268 0.350403 0 127 127
-0.068337 -0.461003 0.340516 0 127 127
0.192393 0.347479 0.145031 0 127 127
-0.136648 -0.125389 0.222625 0 127 127
0.093044 -0.325902 0.292494 0 127 127
-0.133195 0.716187 0.031559 153 0 76
-0.136842 0.992035 -0.011840 153 0 76
-0.055112 -0.782428 -0.371775 0 127 127
-0.009585 0.206320 0.346136 0 127 127
-0.218686 0.369285 -0.038800 0 127 127
-0.032815 -0.481450 0.355851 0 127 127
0.202094 0.340046 -0.094291 0 127 127
0.197534 -0.607763 0.121266 0 127 127
0.058813 0.236323 0.368637 0 127 127
-0.177361 0.191667 -0.024359 0 127 127
-0.185416 0.461136 0.207836 0 127 127
-0.042259 0.482833 -0.377605 0 127 127
-0.150460 -0.670501 0.289919 0 127 127
-0.218524 -0.740283 0.039811 0 127 127
-0.122517 -0.812086 0.266505 0 127 127
-0.109619 -0.163634 -0.283437 0 127 127
0.156295 -0.231849 0.123758 0 127 127
-0.171861 0.041885 -0.096490 0 127 127
0.140601 -0.793322 0.249925 0 127 127
-0.182373 0.502499 -0.217968 0 127 127
0.157817 -0.088208 -0.116235 0 127 127
-0.112160 -0.820716 -0.270000 0 127 127
-0.150778 0.906559 -0.023521 153 0 76
-0.080872 0.068637 0.329972 0 127 127
-0.083281 -0.040342 0.326214 0 127 127
0.126366 0.019188 -0.222982 0 127 127
-0.160183 -0.536150 0.270612 0 127 127
-0.057357 -0.723066 -0.377605 0 127 127
0.161359 -0.172462 -0.093643 0 127 127
-0.177131 -0.428213 0.058987 0 127 127
-0.114606 0.372084 0.352105 0 127 127
0.120338 0.535213 0.281767 0 127 127
-0.100218 0.992035 -0.002469 153 0 76
0.164523 0.347063 0.234031 0 127 127
0.001402 -0.785220 0.366868 0 127 127
-0.206634 0.350972 0.132616 0 127 127
-0.179142 -0.385859 -0.022333 0 127 127
0.087383 -0.768484 -0.377605 0 127 127
0.158975 0.051126 -0.108847 0 127 127
0.064326 0.191667 0.096006 0 127 127
0.056491 -0.857287 -0.241674 0 127 127
-0.043282 -0.519802 0.375490 0 127 127
0.028739 -0.857287 -0.026361 0 127 127
0.134396 -0.567340 0.300078 0 127 127
0.138065 0.086338 -0.192167 0 127 127
-0.010948 0.598313 -0.266143 0 127 127
0.199849 0.352559 0.106500 0 127 127
0.125010 -0.146883 0.224440 0 127 127
0.184521 -0.792242 -0.105378 0 127 127
-0.121017 -0.034843 0.258688 0 127 127
0.003807 0.529306 -0.362721 0 127 127
0.176251 -0.464050 0.012648 0 127 127
0.144665 -0.006325 -0.169738 0 127 127
0.207348 -0.759208 -0.046308 0 127 127
-0.045634 0.604743 -0.198309 0 127 127
-0.218161 -0.683091 0.046818 0 127 127
0.181715 0.490842 -0.187424 0 127 127
0.020428 -0.022499 -0.337261 0 127 127
0.053795 0.595111 0.051488 0 127 127
-0.165603 -0.377578 -0.132064 0 127 127
-0.099361 0.418451 0.375490 0 127 127
-0.173575 0.175649 0.083443 0 127 127
-0.116107 -0.391986 0.268437 0 127 127
-0.042502 0.595111 -0.039558 0 127 127
0.049288 0.985149 0.117979 153 0 76
-0.220567 -0.526362 -0.002546 0 127 127
-0.211940 0.402820 -0.101324 0 127 127
0.094479 -0.523378 0.366418 0 127 127
0.082951 -0.607455 -0.377605 0 127 127
-0.170636 0.496897 -0.248884 0 127 127
-0.177848 -0.240439 -0.047280 0 127 127
0.146871 -0.174975 -0.161421 0 127 127
-0.137467 -0.635306 0.315721 0 127 127
0.149503 -0.486798 0.229561 0 127 127
0.160596 -0.252284 0.096391 0 127 127
-0.150004 -0.845132 -0.039886 0 127 127
0.167408 0.076102 0.035351 0 127 127
-0.104374 -0.306664 -0.293852 0 127 127
0.169131 -0.439405 -0.004256 0 127 127
-0.102539 0.236492 -0.360579 0 127 127
-0.085009 0.138103 -0.325635 0 127 127
-0.138755 -0.063080 0.217074 0 127 127
-0.189612 -0.764949 0.196782 0 127 127
0.091913 0.521148 -0.360075 0 127 127
0.201798 0.262099 -0.096181 0 127 127
-0.174861 -0.079861 0.075240 0 127 127
0.032436 -0.185570 -0.337261 0 127 127
0.191200 -0.485786 -0.041284 0 127 127
0.136735 -0.084293 -0.195670 0 127 127
-0.182018 -0.456389 0.001626 0 127 127
-0.020608 0.659489 -0.120135 76 153 0
0.027908 -0.445418 -0.337261 0 127 127
-0.024536 0.975118 0.144623 153 0 76
-0.153029 -0.595660 -0.286933 0 127 127
-0.056910 0.191667 0.289895 0 127 127
0.137028 0.191667 -0.029381 0 127 127
-0.169909 -0.795128 0.196473 0 127 127
0.055254 0.090346 -0.337261 0 127 127
0.105173 -0.843314 0.202389 0 127 127
0.171610 0.232048 0.184171 0 127 127
0.130491 0.716187 -0.021530 153 0 76
-0.013210 0.926486 0.145879 153 0 76
0.163415 -0.276379 0.078413 0 127 127
-0.109941 -0.434590 0.280682 0 127 127
